ncols 80
nrows 77
xllcorner 694670.6875
yllcorner 5970104.56562
cellsize 100.021875
NODATA_value -9999                                                                              
6 23.1518993377686 34.1518974304199 52.2278480529785 40.392406463623 33.3797454833984 51.455696105957 37.4683532714844 56.8227844238281 71.6835479736328 68.2405090332031 61.5822792053223 60 54.0126571655273 53.1265830993652 92.2658233642578 114 83.4810104370117 84.0506362915039 101.886077880859 103 110.987342834473 153.189880371094 177 133.797470092773 151.44303894043 220.810119628906 220.772155761719 176.746841430664 185.518981933594 251.696197509766 246.468353271484 239.430374145508 243.468353271484 198.544296264648 200.974685668945 232.936706542969 266.050628662109 295.113922119141 277.962036132813 300.037963867188 307.113922119141 311.405059814453 291.303802490234 249.632904052734 240.670883178711 288.734191894531 304.493682861328 334.759490966797 361.886077880859 381.797454833984 381 378.025329589844 370.974670410156 363.898742675781 344.202545166016 321.379760742188 340.658233642578 355.810119628906 371.481018066406 379.556976318359 385.316467285156 388 387.392395019531 386.569610595703 383 382 382 377.253173828125 375.860748291016 373.367095947266 363.696197509766 337.987335205078 301.227844238281 328.531646728516 373.088592529297 374.569610595703 364.924041748047 342.417724609375 306
13.0759496688843 21.1518993377686 30.3417720794678 51.6455688476563 58.0817184448242 55.2730331420898 60.2658233642578 48.1696853637695 68.8745422363281 122.038932800293 121.168083190918 96.8227844238281 97.7181549072266 82.4491271972656 79.9469604492188 78.6297073364258 77.9322204589844 85.7832107543945 115.266464233398 122.405059814453 123.452171325684 135.402816772461 153.145492553711 175.868606567383 138.898727416992 132.763336181641 188.392883300781 195.533569335938 157.962020874023 183.586120605469 250.696197509766 245.291137695313 230.553283691406 218.784805297852 180.83544921875 184.94905090332 236.467071533203 272.941192626953 264.751007080078 252.19548034668 276.846649169922 293.679382324219 296.665435791016 282.111358642578 254.468032836914 224.39241027832 237.711898803711 290.202545166016 335.557769775391 352.983184814453 364.113922119141 371.461151123047 381.049682617188 380.038452148438 367.998077392578 357.072570800781 356.042785644531 364.05078125 376.572357177734 372.085083007813 376.594940185547 384.278472900391 388.708862304688 392.453460693359 394.09228515625 394.627777099609 391.075958251953 390.055267333984 386.911407470703 383.090362548828 382.050964355469 379.871185302734 346.488708496094 306.721527099609 341.710632324219 385.728424072266 392.881744384766 398.151885986328 377.419158935547 344.962036132813
20.2278480529785 32.5316467285156 43.455696105957 59.5989418029785 66.3797454833984 79.7974700927734 81.6029510498047 59.7266464233398 53.7468338012695 116.418365478516 152.788330078125 143.80387878418 157.167922973633 163.025314331055 160.113922119141 106.390319824219 92.5785903930664 109.952568054199 152.27848815918 191.307800292969 194.544296264648 176.313735961914 174.44303894043 183.550872802734 161.918121337891 138.531646728516 152.862686157227 169.446884155273 163.584045410156 196.237777709961 250.491592407227 247.238906860352 222.23681640625 195.772155761719 174.588531494141 192.354110717773 245.402496337891 248.151901245117 229.55696105957 232.409393310547 242.683547973633 252.329116821289 277.708862304688 295.911407470703 262.632904052734 207.819580078125 232.702774047852 282.826477050781 318.393218994141 311.719421386719 295.810119628906 327.321258544922 362.459533691406 364.82568359375 373.855804443359 369.120666503906 363.623291015625 369.139404296875 373.622985839844 381.075958251953 381.075958251953 382.684814453125 389.063293457031 397.059600830078 401.97998046875 402.063293457031 397.075958251953 397.64892578125 396.613830566406 394.560485839844 387.759490966797 369.126586914063 343.273345947266 331.210540771484 358.115692138672 389.836578369141 399.675537109375 405.766387939453 381.382629394531 342.151885986328
35.7974700927734 56.0209884643555 61.8647651672363 68.6835479736328 72.5316467285156 91.0036849975586 83.7208786010742 59.8833503723145 66.3350448608398 119.123695373535 151.448318481445 165.883026123047 170.797470092773 179.045028686523 174.627456665039 169.788009643555 147.512252807617 150.027725219727 162.296112060547 217.759658813477 230.73210144043 234.4326171875 234.620254516602 216.757736206055 197.151901245117 169.790573120117 162.797470092773 174.151901245117 195.036209106445 233.141479492188 248.541091918945 250.518981933594 204.27848815918 178.876937866211 167.754684448242 215.557922363281 250.097427368164 238.105758666992 222.329437255859 207.544296264648 193.864929199219 215.481491088867 252.670883178711 266.45458984375 227.722473144531 199.237457275391 214.439514160156 257.530029296875 266.361968994141 260.3291015625 245.316452026367 270.925811767578 284.898742675781 302.672332763672 347.873413085938 371.359405517578 378.860748291016 374.113922119141 376.270294189453 379.926147460938 381.854339599609 382.088592529297 386.440643310547 394.721527099609 403.632904052734 403.116638183594 403.354431152344 410.175933837891 411.034942626953 405.030609130859 391.406036376953 372.487731933594 346.794738769531 338.746826171875 372.383422851563 399.506317138672 403.328796386719 404.189880371094 388.164245605469 366.594940185547
60.7594947814941 75.4441604614258 79.8480987548828 79.8654098510742 84.9575424194336 101.312927246094 84.2531661987305 57.8077239990234 90.582275390625 125.734176635742 152.050628662109 166.405059814453 178.980606079102 183.44303894043 195.202529907227 206.390319824219 193.940399169922 205.952575683594 190.812683105469 209.240509033203 228.226409912109 244.141006469727 246.316131591797 248.455703735352 245.873413085938 214.316452026367 191.063293457031 236.16455078125 239.116973876953 244.268539428711 250.269989013672 244.316452026367 195.934631347656 166.924057006836 180.379592895508 229.545593261719 228.997268676758 208.173690795898 192.130584716797 148.012664794922 146.338882446289 156.940719604492 222.001770019531 234.645568847656 170.911392211914 177.848266601563 213.241470336914 236.640289306641 215.202529907227 210.864929199219 200.445755004883 214.819747924805 218.924057006836 255.841217041016 310.093566894531 338.378936767578 375.557434082031 377.291473388672 373.562408447266 367.265808105469 375.029632568359 373.012664794922 378.202545166016 382.725189208984 394.913482666016 404.531646728516 405.328155517578 415.721527099609 421.404754638672 413.233459472656 398.706298828125 384.851776123047 360.942169189453 341.613525390625 371.139251708984 399.111694335938 408.789459228516 412.935577392578 411.335998535156 409.455688476563
75.1898727416992 91.0270767211914 94.6438064575195 87.8934478759766 107.21166229248 115.365165710449 101.56224822998 80.759651184082 77.7439498901367 108.857551574707 136.810119628906 155.772155761719 171.124496459961 186.215194702148 196.924057006836 207.677780151367 214.60758972168 215.666885375977 213.822784423828 228.991821289063 230.759490966797 252.987335205078 253.974685668945 253.620254516602 254.35026550293 233.863800048828 215.951766967773 249.506332397461 252.391128540039 250.259246826172 246.606475830078 223.902740478516 183.382629394531 139.141799926758 155.227844238281 218.518981933594 192.962188720703 155.579391479492 152.924057006836 123.891525268555 129.716064453125 140.22705078125 168.839294433594 190.936386108398 154.318862915039 161.368377685547 190.772155761719 185.541412353516 170.991668701172 172.695083618164 179.708862304688 178.810119628906 181.574432373047 221.799865722656 305.573150634766 328.038146972656 355.770874023438 367.399932861328 347.216156005859 352.868438720703 367.194366455078 373.439819335938 373.865417480469 372.278472900391 379.981567382813 392.443359375 387.050628662109 392.873413085938 405.759490966797 412.738037109375 409.808532714844 394.880462646484 371.582427978516 360.556976318359 372.312622070313 390.652618408203 402.969390869141 410.544311523438 416.099517822266 420.759490966797
85.1392440795898 118.058647155762 129.16455078125 109.544303894043 123.911392211914 140.650863647461 144.051910400391 136.414993286133 102.075950622559 86.4391937255859 93.5864410400391 117.77872467041 143.698760986328 181.592056274414 187.488220214844 205.629699707031 215.304595947266 221.248352050781 229.439193725586 230 230.291137695313 252.189880371094 251.55696105957 247.800994873047 252.475891113281 241.151901245117 234.693313598633 244.677780151367 239.705337524414 246.66047668457 223.107681274414 213.367095947266 201.583877563477 147.83544921875 137.550872802734 185.519943237305 163.514022827148 142.361801147461 104 107.405059814453 135.388397216797 160.392730712891 144.545913696289 150.706619262695 154.365173339844 153.772155761719 152.601989746094 152.772155761719 154.969879150391 165.582275390625 179.693954467773 178.985580444336 179.025314331055 203.316452026367 293.646697998047 325.772155761719 328.980285644531 330.416290283203 310.873413085938 333.046630859375 353.481658935547 383.016510009766 369.420776367188 351.231048583984 366.218383789063 374.273040771484 376.227844238281 383.508880615234 396.3291015625 408.099182128906 409.263885498047 393.361145019531 382.258605957031 388.594940185547 387.741546630859 384.477661132813 392.684173583984 406.210540771484 419.008666992188 431
99 116.655662536621 126.083480834961 121.189872741699 133.805313110352 144.671051025391 144.506332397461 141.070663452148 138.802276611328 123.481010437012 98.569938659668 102.663993835449 126.55696105957 188.088607788086 205.407150268555 215.139236450195 218.769104003906 229.55696105957 231.531646728516 233.518981933594 235.582275390625 253.455703735352 255.16455078125 247.253158569336 248 244.518188476563 246.788177490234 246.821990966797 223.101425170898 206.974685668945 190.847137451172 197.139236450195 185.392883300781 131.147888183594 123.935264587402 135.973556518555 121.603912353516 119.734336853027 105.083641052246 107.049354553223 128.31901550293 167.565780639648 185.727767944336 200.703567504883 169.597183227539 169.189880371094 170.189880371094 170.189880371094 173.30940246582 187.189880371094 188.944564819336 191.818466186523 178.057357788086 200.483581542969 268.895538330078 275.578765869141 281.822784423828 280.562744140625 289.101257324219 305.876617431641 323.980438232422 368.443023681641 349.828399658203 341.639007568359 385.708374023438 384.407135009766 379.493682861328 383.898742675781 397.440155029297 407.354431152344 409 397.805328369141 393.148681640625 402.202545166016 403.683715820313 399.833038330078 397.772155761719 412.941833496094 426.427825927734 430
114.341773986816 134.559204101563 144.419967651367 155.83544921875 158.957534790039 158.994384765625 155.734176635742 155.734176635742 161.734176635742 164.243072509766 149.987335205078 111.138282775879 118.822784423828 171.466430664063 197.053680419922 211.573944091797 220.095977783203 232.291137695313 235 241.139236450195 244.455703735352 251.128341674805 254.531646728516 249.518508911133 249.026916503906 242.800186157227 245.20637512207 213.873413085938 185.841537475586 132.479248046875 139.886077880859 160.946166992188 137.493667602539 120.761413574219 104.708862304688 104 104.888481140137 103.69620513916 104.69620513916 105 106.241630554199 128.860763549805 182.332641601563 207.437591552734 222.49494934082 220.809799194336 212.595901489258 212.822784423828 216.272064208984 227.468353271484 223.795700073242 220.746841430664 184.949371337891 192.431503295898 216.904174804688 206.477813720703 222.468841552734 227.950012207031 232.079467773438 258.078826904297 295.970031738281 305.924041748047 300.493988037109 315.882873535156 359.822784423828 369.262298583984 381.457611083984 390.088592529297 401.772155761719 408.112487792969 411.407623291016 410.607604980469 407.007843017578 405.96875 406.33056640625 401.561462402344 402.683532714844 419.818298339844 431.292266845703 431
145.341766357422 158.303802490234 157.341766357422 160.113922119141 165.645568847656 178.72151184082 182.683547973633 182.934463500977 183.483581542969 183.025314331055 183.534851074219 131.130111694336 113.856910705566 169.759490966797 192.801956176758 209.678741455078 219.215194702148 231.291137695313 232.658233642578 237.379745483398 236.974685668945 242.728256225586 253.670883178711 251.126586914063 250.518981933594 231.253158569336 219.354431152344 179.481018066406 149.75212097168 89.9274139404297 96.2086181640625 110.26309967041 96.7546844482422 104.831275939941 104.609359741211 96.5077743530273 98.4270172119141 116.011054992676 111.304756164551 102.835441589355 103.835601806641 124.444000244141 198.987335205078 226.781448364258 255.454254150391 255.893127441406 253.491592407227 245.389999389648 255.40234375 285.531646728516 260.205902099609 237.882385253906 207.510971069336 196.712860107422 204.675537109375 204.881103515625 210.417724609375 229.658233642578 231.613525390625 239.076263427734 244.740753173828 246.373977661133 263.198852539063 295.270935058594 319.096466064453 352.358917236328 383.6708984375 394.6796875 407.307312011719 413.452484130859 417.683532714844 418.159423828125 424.976928710938 432 419.94775390625 405.051910400391 410.658233642578 423.772155761719 431.962036132813 433
127.822784423828 146.64909362793 156.39241027832 158.620254516602 161.106872558594 169.219039916992 178.643493652344 183.506332397461 188.419158935547 190.759490966797 189.620254516602 167.936706542969 135.751007080078 180.503921508789 203.66015625 208.834320068359 211.559844970703 220.012664794922 229.44319152832 235 230.711578369141 237.455703735352 249.531646728516 252.331680297852 249.506332397461 222.126586914063 196.405059814453 181.272384643555 161.66960144043 114.607116699219 80.5294036865234 76.2405090332031 79.0195465087891 96.131706237793 94.6675186157227 79.5410995483398 94.3037948608398 144.354431152344 138.445114135742 136.151901245117 130.479248046875 159.716232299805 242.571548461914 265.797302246094 269.215179443359 270.410980224609 304.693786621094 296.772155761719 295.261169433594 301.278472900391 290.859802246094 288.154449462891 248.408111572266 222.616729736328 202.240509033203 205.155899047852 222.146774291992 243.723114013672 247.634826660156 265.493682861328 238.986541748047 241.468032836914 286.540924072266 326.705963134766 354.115051269531 370.594299316406 381.192291259766 391.307952880859 407.582275390625 413.716552734375 423.037963867188 427.887512207031 430 430.478942871094 425.257019042969 415.524597167969 417.714141845703 427.636444091797 432.962036132813 435.759490966797
96.1645584106445 122.810127258301 148.962020874023 157.996948242188 162.658233642578 163.506332397461 169.328628540039 178.224960327148 193.468353271484 197.692672729492 195.455703735352 189.83544921875 154.455215454102 189.187789916992 196.234741210938 194.250595092773 197.60758972168 203.936706542969 223.481018066406 232.002410888672 230.240509033203 230.46435546875 237.321899414063 253.746841430664 237.696197509766 205.383911132813 179.650863647461 164.023239135742 169.013778686523 121.738502502441 81.3619613647461 71.9259719848633 73.3404922485352 78.582275390625 79.4127578735352 89.5425415039063 118.911392211914 161.72151184082 171.564819335938 220.832244873047 208.269027709961 222.89697265625 266.781433105469 292.303802490234 307.889587402344 301.726470947266 326.287445068359 338.924041748047 329.531646728516 319.98974609375 319.1435546875 337.378631591797 316.200439453125 273.560180664063 227.468353271484 233.38166809082 258.590454101563 283.587738037109 284.940704345703 307.204132080078 265.609985351563 256.205413818359 309.312622070313 346.570892333984 376.800018310547 379.335998535156 377.3291015625 386.861236572266 399.319183349609 411.481018066406 425.316467285156 430 430 430 430.338409423828 431 431 433 434.962036132813 438
116.924049377441 135.780166625977 153.670883178711 165.745559692383 178.303802490234 181 174.227844238281 178.397857666016 201.353622436523 203.227844238281 200 204.265335083008 184.72151184082 178.775039672852 179.318222045898 196.879821777344 200.634506225586 204.452651977539 211.372055053711 227.708862304688 228.544296264648 230.363403320313 230.745880126953 244.652618408203 222.797470092773 205.685791015625 179.101272583008 131.509689331055 133.151901245117 95.5569610595703 71.9115524291992 71 76.4398345947266 87.2784805297852 92.0374908447266 132.177215576172 152.460189819336 188.810119628906 207.227844238281 263.594940185547 269.303802490234 291.811401367188 301.032684326172 315.800201416016 324.991180419922 343.702301025391 356.609039306641 355 356.374938964844 355.847778320313 342.223358154297 356.873413085938 353.332489013672 324.624908447266 315.26806640625 307.984924316406 314.475402832031 330.798431396484 326.431976318359 314.548645019531 268.873413085938 261.726470947266 293.474456787109 334.004821777344 366.664489746094 380.430389404297 368.930938720703 368.058166503906 389.759002685547 411.818634033203 424.518981933594 430 430 430 428.365020751953 427.405853271484 428.658233642578 430.012664794922 433.506317138672 434.544311523438
142.531646728516 147.531646728516 157.240509033203 165.790420532227 177.303802490234 181 174.772155761719 177.037979125977 192.596862792969 200.194046020508 199.192276000977 204 191.870529174805 189.211990356445 181.231216430664 197.367095947266 204.60758972168 205 213.172882080078 226.808364868164 225.746841430664 221.137954711914 221.037979125977 211.644775390625 188.025314331055 187.544616699219 179.063446044922 130.797470092773 103.494468688965 70.4303817749023 56.2784805297852 72.760612487793 82.8250274658203 123.427177429199 139.236022949219 188.609680175781 191.797470092773 216.39241027832 246.27848815918 288.886077880859 293.050628662109 317.24755859375 331.683532714844 332.987335205078 336.339691162109 352.430389404297 356.609191894531 364.349456787109 365.784820556641 370.609344482422 365.012023925781 365.898742675781 373.455688476563 376.012817382813 379.27783203125 365.860748291016 371.469970703125 378.904022216797 359.340484619141 332.875183105469 293.195159912109 264.151580810547 277.845855712891 306.406188964844 332.8662109375 351.212615966797 360.281524658203 360.146118164063 380.620239257813 402.204925537109 420.303802490234 431 431.227844238281 426.199645996094 416.007537841797 420.330078125 427.227844238281 424.430389404297 428.506317138672 434.493682861328
105.620254516602 117.351707458496 147.040374755859 168.936706542969 178.303802490234 183 177.303802490234 175.656143188477 178.772155761719 190.025314331055 197.379745483398 201.886077880859 203.468353271484 203.974685668945 187.468353271484 195.102233886719 203.423812866211 209.05207824707 226.37077331543 225.746841430664 226.772155761719 206.012664794922 194.39128112793 162.573623657227 145.585800170898 137.064895629883 159.119857788086 129.795867919922 94.147575378418 56.0158615112305 57.719596862793 97.8396072387695 108.11296081543 157.07258605957 186.284255981445 224.744598388672 228.27848815918 250.72135925293 270.384704589844 305.936706542969 317.265808105469 331.531646728516 331.531646728516 333.936706542969 336.810119628906 344.262939453125 359.599578857422 381.569610595703 381 380.457611083984 381 381.531646728516 381 381.537567138672 382.504730224609 381 381 382 379.234252929688 366.313903808594 329.245483398438 278.826477050781 267.521881103516 279.075958251953 276.3408203125 291.590606689453 329.822784423828 351.374450683594 367.779052734375 390.05126953125 413.059600830078 421.810119628906 419.888153076172 410.238739013672 403.088928222656 414.106079101563 423.518981933594 422.356842041016 426.962036132813 440.063293457031
86.8480987548828 98.2658233642578 143.265823364258 171.746841430664 181.173049926758 185.569625854492 185.170959472656 189.417724609375 185.932388305664 186.349624633789 193.620254516602 195.860763549805 198.886077880859 201.787536621094 198.177215576172 203.894088745117 214.18586730957 221.569625854492 224.863800048828 225 223.772155761719 206.215194702148 180.410186767578 123.974685668945 119.063133239746 97.1645584106445 109.54606628418 119.043258666992 88.9113922119141 57.3670883178711 70.2278518676758 130.911071777344 149.586288452148 157.83544921875 186.744277954102 235.675689697266 242.361480712891 281.379760742188 285.480224609375 316.510803222656 330.518981933594 332.430389404297 332.405059814453 329.215667724609 324.977081298828 350.351867675781 368.405059814453 381.692199707031 381.569610595703 380.569610595703 380 382.569610595703 383 383.012664794922 383.978210449219 382 381.126586914063 382.475891113281 382.115356445313 364.303802490234 325.938323974609 313.259735107422 288.417724609375 285.785125732422 279 288.543334960938 313.037963867188 344.987335205078 373.594940185547 380.572998046875 389.572662353516 394.185699462891 392.950317382813 398.958831787109 409.518981933594 415.822784423828 422.643981933594 425.030609130859 427.569610595703 441.430389404297
123.291137695313 124.989585876465 148.262130737305 160.057357788086 179.39241027832 184.466918945313 195.898727416992 204.711898803711 196.15397644043 190.245635986328 197.338882446289 199.822784423828 203.457305908203 206.708862304688 205.816207885742 214.09294128418 229.276397705078 228.607757568359 224.584686279297 224 221.303802490234 195.331192016602 158.911392211914 107.757568359375 93.943115234375 70.6075973510742 69.1216125488281 84.126579284668 83.3811874389648 57.3308753967285 73.4476852416992 129.740585327148 146.177215576172 147.667037963867 163.923736572266 194.41259765625 211.351379394531 261.398010253906 287.361145019531 330.531646728516 329.165679931641 321.623626708984 319.644134521484 308.946319580078 313.774719238281 359.240173339844 369.446868896484 359.755157470703 361.923889160156 372.598937988281 381.444793701172 381.430847167969 382.984619140625 384.012664794922 384.949371337891 383 383.657257080078 384.507598876953 382.876953125 370.002258300781 355.514343261719 350.946960449219 314.860931396484 305.267913818359 283.392395019531 291.272399902344 317.573455810547 352.882873535156 373.772155761719 367.116821289063 363.341766357422 381.303802490234 386.522033691406 401.860748291016 416.302368164063 426.151885986328 432.562896728516 431.046142578125 429.037963867188 438
150.645568847656 153.32991027832 154.403457641602 153.541900634766 174.759490966797 180.189880371094 200.139236450195 205.734176635742 198.145645141602 201.817337036133 206.514343261719 209 212 211 209.822784423828 223.619613647461 227.708862304688 223.063293457031 221.795700073242 226.012664794922 229.772155761719 192.687866210938 151.39241027832 106.86653137207 78.8860778808594 54.607593536377 54 53.3544311523438 53.3544311523438 56.3627624511719 78.1480560302734 117.960586547852 109.392402648926 109.771026611328 122.934783935547 169.784805297852 189.468353271484 224.987335205078 276.886077880859 319.531646728516 315.032043457031 284.134124755859 282.975006103516 280.974670410156 303.744110107422 345.6708984375 341.621368408203 328.291473388672 333.468353271484 358.053192138672 371.822784423828 379.959136962891 380.345458984375 382.367095947266 385.032684326172 385.645568847656 386.645568847656 387.481018066406 385.291137695313 384.021942138672 384.389831542969 363.886077880859 328.708862304688 317.075958251953 291.847473144531 301.071624755859 327.338073730469 348.762542724609 356.269653320313 357.664947509766 361.8662109375 379.151885986328 390.296752929688 402.587097167969 416.620239257813 426.844909667969 434.200134277344 432.124969482422 431.621063232422 440.645568847656
149 149.379104614258 157.570907592773 164.251235961914 173.296112060547 178.825988769531 200.139236450195 205.232330322266 201.379745483398 200.575393676758 204.183471679688 207.417724609375 212.455703735352 213.337448120117 217.066970825195 222.620254516602 224.268218994141 221.354431152344 218.316452026367 218.810607910156 210.44287109375 196.975479125977 162.810119628906 119.831115722656 101.357154846191 67.1738510131836 55.0213088989258 55 54.936710357666 58.0573616027832 94.044059753418 91.6274642944336 77.3496246337891 81.6920394897461 117.813652038574 141.552963256836 139.050628662109 189.658233642578 241.605667114258 293.949035644531 288.785125732422 253.088607788086 257.014251708984 277.949371337891 285.541412353516 318.540771484375 320.983001708984 329.248352050781 334.430389404297 356.898254394531 368.012664794922 380.873413085938 382.367095947266 382.696197509766 386.734191894531 391.683532714844 391.683532714844 391.518981933594 390.683532714844 387.83544921875 382.544769287109 370.067779541016 351.128356933594 337.817962646484 305.199493408203 306.318054199219 324.780792236328 329.455688476563 327.151885986328 338.461944580078 362.791687011719 377.346893310547 389.202545166016 403.016510009766 415.680328369141 423.860748291016 432.772155761719 433.783538818359 438.265167236328 447.367095947266
152.16455078125 158.240509033203 166.92822265625 178.949371337891 175.139236450195 177.759490966797 200.139236450195 205 206 206 206.447525024414 208.139236450195 211.126907348633 212.772155761719 218.341766357422 224.405059814453 225 226.44303894043 222.797470092773 204.670883178711 170.739471435547 156.576507568359 111.982536315918 110.088607788086 109.265182495117 82.1182479858398 56.0597648620605 55 53.2784805297852 54.063289642334 77.7966690063477 89.9392700195313 98.9173202514648 82.9963150024414 108.797470092773 116.591896057129 106.862678527832 137.618011474609 192.800674438477 265.632904052734 257.533721923828 255.8037109375 270.922943115234 299.555999755859 292.373657226563 303.197418212891 310.837219238281 340.464996337891 345.443023681641 369.872619628906 382.693328857422 380.936706542969 387.703247070313 386.734191894531 389.772155761719 394.063934326172 395 394 392.797454833984 391.30908203125 391.050628662109 387.83447265625 378.41259765625 357.189880371094 325.323181152344 311.248199462891 308.851623535156 328.317749023438 343.774566650391 345.779510498047 351.385833740234 354.501678466797 354.023406982422 386.684020996094 412.810119628906 419.713195800781 431.886077880859 434.945190429688 440.924041748047 446.556976318359
158 160.258773803711 163.037979125977 167.757415771484 180.534530639648 184.658233642578 201.497833251953 205 206.240509033203 207.259567260742 208.759490966797 209 208.130905151367 209.118728637695 211.012664794922 211.723754882813 225.582275390625 225.750198364258 224.354431152344 205.401382446289 157.703414916992 129.417724609375 82.8464965820313 67.8758239746094 67.6835479736328 68.4936676025391 55.2815246582031 56.1083145141602 75.3366470336914 86.9990386962891 100.598625183105 116.173851013184 125.657104492188 89.7848129272461 88.6902770996094 102.060089111328 103.632911682129 109.481010437012 166.766860961914 249.44303894043 234.470123291016 270.215179443359 297.505218505859 324.72119140625 316.645568847656 314.848114013672 322.964416503906 356.898742675781 364.767517089844 382.375274658203 386.682586669922 386.230407714844 390.75341796875 392.522033691406 394.810119628906 396.780792236328 397.096130371094 396.960418701172 395.15380859375 398.481018066406 404.962036132813 399.050476074219 379.338409423828 345.645568847656 326.156372070313 314.103820800781 302.106079101563 322.860748291016 361.886871337891 345.576843261719 317.183624267578 311.250274658203 301.757568359375 334.573944091797 378.179931640625 404.729858398438 432.559051513672 432.222229003906 434.712371826172 442
147.012664794922 153.301071166992 155.797470092773 154.227844238281 178.316452026367 186.797470092773 201.683547973633 206 205.555206298828 201.335037231445 206.707901000977 201.856750488281 195.303802490234 184.036697387695 193.373336791992 195.354431152344 220.725036621094 213.388244628906 214.202529907227 204.670883178711 158.837371826172 119.996955871582 71.8940887451172 53.5069694519043 53.2025299072266 53.2025299072266 54.1999664306641 58.3441772460938 127.987182617188 154.286331176758 153.256042480469 151.569625854492 150.849548339844 138.898727416992 139.008331298828 136.6396484375 116.555358886719 120.417724609375 166.153015136719 239.04182434082 231.44303894043 273.6708984375 297.069366455078 312.075958251953 323.095336914063 342.058959960938 345.125305175781 359.949371337891 369.468353271484 381.035095214844 386.919250488281 399.076110839844 397.620239257813 395 397.807708740234 398.797454833984 400.050628662109 401.463714599609 397.797454833984 399.481018066406 404.462585449219 399.811737060547 377.679382324219 338.676483154297 320.871978759766 303.107666015625 312.122741699219 339.549591064453 353.358428955078 327.558898925781 301.544311523438 303.898742675781 291.275268554688 297.468353271484 331.720062255859 382.2568359375 434.772155761719 432.075958251953 429.037963867188 440.405059814453
124.822784423828 129.898574829102 132.27864074707 149.139724731445 168.138916015625 177.867492675781 200.139236450195 206 196.911392211914 189.095657348633 193.202529907227 188.240509033203 170.708862304688 156.670883178711 156.820541381836 157.488540649414 194.078506469727 204.868453979492 209.16455078125 198.886077880859 157.251556396484 105.797470092773 57.481014251709 51.8942489624023 52 53.7848091125488 66.7910614013672 82.3416137695313 145.417724609375 183.160552978516 195.913803100586 203.387435913086 189.832885742188 194.059600830078 191.827270507813 166.860763549805 131.531646728516 134.297073364258 173.822784423828 225.962020874023 216.569625854492 248 283.826141357422 305.794586181641 317.312927246094 350.921325683594 357.370788574219 360.16455078125 363.139251708984 376.073547363281 386.3291015625 406.873413085938 401.261657714844 388.518981933594 395.3291015625 397.327178955078 402.982849121094 404.697967529297 401.6708984375 402.075958251953 401.585327148438 384.98876953125 353.326385498047 323.708862304688 312.554565429688 303.063293457031 325.005279541016 349.496551513672 324.645568847656 316.870208740234 321.385345458984 324.165832519531 303.873413085938 312.240997314453 345.22705078125 388.735137939453 434.031890869141 432 423.639312744141 429.493682861328
87.6455688476563 90.1169662475586 100.689636230469 144.139236450195 158.27848815918 175.949371337891 195.291137695313 200.582275390625 163.735137939453 156.285858154297 166.645568847656 168.924057006836 148.423324584961 134.847305297852 118.941352844238 127.168403625488 173.291137695313 193.005767822266 194.075942993164 187.493667602539 157.068420410156 118.317092895508 70.8652496337891 54.1105575561523 53.077392578125 55.8987350463867 80.9224472045898 94.8892822265625 116.416442871094 144.152053833008 173.914123535156 218.565612792969 203.405059814453 206.905456542969 199.379745483398 151.493667602539 130.953536987305 146.720230102539 196.656463623047 214.830642700195 198.769744873047 236.569625854492 273.27783203125 295.924041748047 316.991027832031 341.342895507813 343.759490966797 345.229766845703 357.468353271484 368.096313476563 374.354431152344 394.632904052734 390.712066650391 382.026916503906 389.038146972656 390.800354003906 405.873413085938 405 405 407.113922119141 404.435821533203 382.025329589844 356.759490966797 331.493682861328 310.687377929688 303.531646728516 320.382141113281 334.9072265625 309.111694335938 312.516418457031 339.159271240234 343.418670654297 318.126586914063 320.499267578125 361.402496337891 399.974212646484 422.419494628906 421.699249267578 410.541259765625 422
42.7974700927734 50.3291130065918 95.0751495361328 137.96955871582 144.960418701172 175.312286376953 188.02018737793 177.871658325195 137.416122436523 118.815093994141 138.518981933594 142.897766113281 100.98974609375 81.286491394043 101.377662658691 138.025314331055 165.80387878418 168.297714233398 157.956573486328 156.087966918945 154.831436157227 130.822784423828 73.417724609375 53.5569610595703 55 55.0334892272949 68.3924026489258 82.1831436157227 126.120971679688 125.941993713379 129.213592529297 166.746841430664 180.847946166992 194.302673339844 209.493194580078 164.506332397461 146.605834960938 179.331359863281 182.939270019531 190.045989990234 182.345138549805 208.543014526367 239.413558959961 285.918609619141 312.278472900391 334.733703613281 319.696197509766 335.639312744141 354.895690917969 346.987335205078 349.126586914063 369.405059814453 371.282958984375 382.913635253906 384.995513916016 391.18505859375 406 405 404.815399169922 410.181213378906 420.898742675781 405.974670410156 383.930145263672 358.667694091797 328.329437255859 303.531646728516 309.235870361328 317.253173828125 322.083801269531 339.134918212891 352.572357177734 341.037963867188 317.860748291016 312.929168701172 345.438873291016 384.862365722656 411.658233642578 405.708068847656 389.696197509766 420.177215576172
27 26.1664791107178 58.4584197998047 88.5765075683594 93.417724609375 124.734176635742 132.521224975586 140.516586303711 123.141967773438 97.6202545166016 115.151901245117 118.74683380127 63.5867652893066 54.4683532714844 100.86075592041 141.59846496582 145.645568847656 142.736267089844 110.155265808105 127.407943725586 141.051116943359 128.833038330078 60.3037986755371 52.8227844238281 54.9113922119141 55 53.049991607666 71.6848297119141 142.939758300781 167.534042358398 152.842498779297 142.23681640625 166.037979125977 195.696365356445 234.240509033203 189.734176635742 169.903854370117 188.452651977539 167.769271850586 180.44303894043 190.239547729492 188.853866577148 197.074661254883 239.429580688477 281.426361083984 283.525238037109 299.721984863281 325.746826171875 339.658233642578 315.043579101563 310.349304199219 332.420928955078 344.378479003906 357.644927978516 372.554412841797 389.422210693359 400.348022460938 405 407.141632080078 418.062805175781 425.672332763672 411.069213867188 405.361785888672 379.285705566406 335.025329589844 300.632904052734 307.442718505859 314.668640136719 330.649749755859 368.341766357422 373.624908447266 339.462921142578 315.356842041016 327.278472900391 358.79443359375 393.559204101563 397.059753417969 374.991180419922 370.079803466797 411.151885986328
28 28 27.0019226074219 37.3052406311035 40.0905303955078 49.5364532470703 51.3164558410645 106.743469238281 97.9493637084961 71.7131881713867 71.9463195800781 78.3364868164063 47.9056243896484 43.0631294250488 64.4750823974609 89.3869552612305 81.7088623046875 101.46915435791 72.6795349121094 103.35090637207 128.284576416016 118.478446960449 72.5737838745117 56.2389030456543 55 55 52.0126571655273 58.2538070678711 116.974685668945 167.973403930664 189.101272583008 160.518981933594 191.790252685547 210.287933349609 260.625549316406 227.215194702148 205.101272583008 199.838165283203 179.676498413086 186.785293579102 230.429901123047 222.292587280273 178.43278503418 187.620254516602 235.42204284668 218.545913696289 245.740432739258 275.081390380859 300.518981933594 275.849853515625 273.559539794922 313.292755126953 342.835754394531 343.987487792969 360.366455078125 385.429260253906 401.216796875 405.987335205078 407.417724609375 414.534698486328 414.220794677734 407.945373535156 418.324615478516 405.357147216797 364.508087158203 340.278472900391 341.816680908203 341.924041748047 351.992614746094 370.825836181641 355.531311035156 317.217926025391 313.405059814453 348.673767089844 376.443664550781 389.510162353516 375.292572021484 350.088592529297 363.747314453125 403.012664794922
26 27 28 28 28 28.0253162384033 27.7226409912109 58.486141204834 67.858512878418 46.1392402648926 34.5696220397949 39.3058815002441 31.0748271942139 29 27.0253162384033 37.4792518615723 28.407787322998 48.9673118591309 42.4649887084961 53.7609367370605 99.9873428344727 81.1087951660156 65.2616577148438 53.2214393615723 54.9977569580078 55 51.0129776000977 57.1778564453125 102.784812927246 154.749404907227 210.459228515625 174.037979125977 216.258605957031 235.594940185547 290.341766357422 277.645568847656 244.050628662109 238.326705932617 201.65966796875 199.444000244141 255.100784301758 243.634353637695 179.430374145508 188.696197509766 225.329116821289 205.352340698242 216.424133300781 232.674575805664 252.413238525391 253.025314331055 264.113922119141 315.256378173828 347.745544433594 356.962341308594 360.2265625 379.316467285156 393.822784423828 392.848114013672 392.822784423828 391.607604980469 396.305236816406 412.991973876953 423.408752441406 427.867980957031 410.558715820313 395.126586914063 384.088775634766 365.632904052734 377.645568847656 393.192932128906 350.688201904297 299.025329589844 314.145965576172 343.023071289063 349.496704101563 346.324157714844 353.814117431641 365.713836669922 396.074981689453 428.278472900391
26.0632915496826 27 28 28 28.0632915496826 28 29.7232818603516 28.0632915496826 38.9873428344727 30.8913631439209 29 29 29 28 29 29 29 28.0632915496826 28.0632915496826 29.4606628417969 49.4202842712402 53.1768951416016 45.3291130065918 47.6915550231934 52.8481025695801 53.8354415893555 64.4169235229492 70.8639678955078 142.02131652832 183.221282958984 229.55696105957 197.506332397461 244.101272583008 272.832092285156 305.810119628906 303.416931152344 279.924041748047 268.114898681641 266.395141601563 246.103668212891 266.516571044922 258.351715087891 200.734817504883 184.147735595703 214.662719726563 211.634033203125 240.316452026367 229.063293457031 238.315017700195 256.700042724609 273.601501464844 298.121948242188 324.441436767578 343.556976318359 347.873413085938 363.91845703125 367.620239257813 367.455688476563 370.367248535156 384.638031005859 399.331848144531 411.106567382813 418.604705810547 432.367584228516 421.987335205078 410.497985839844 409.83544921875 392.379760742188 397.989593505859 407.556976318359 374.150299072266 326.886077880859 328.759338378906 328.276733398438 328.063293457031 327.161499023438 345.106719970703 387.440002441406 423.506317138672 444.746826171875
28.1012649536133 28.1012649536133 26.1012649536133 26.1128025054932 27.1012649536133 27.2719116210938 28 29 29.1012649536133 28 28 28 28 28.1012649536133 29 29 29 29.6455688476563 34.9552955627441 30.3066806793213 33.5822792053223 47.2103843688965 46.2491569519043 47.974681854248 53.0126571655273 54.9038619995117 90.6050338745117 110.488540649414 180.468353271484 210.144683837891 259.180084228516 248.235214233398 267.757415771484 269.379425048828 292.586456298828 306.349792480469 318.277679443359 307.626831054688 307.044860839844 308.162628173828 302.981567382813 273.645568847656 239.089080810547 215.162948608398 201.792816162109 216.578109741211 266.252532958984 252.882553100586 251.050628662109 270.963470458984 280 281.778564453125 294.119049072266 305.926605224609 319.432769775391 328.683532714844 327.658233642578 330.497680664063 349.607604980469 371.785766601563 384.325103759766 392.006744384766 400.45361328125 421.216949462891 417.587890625 415.278472900391 422.899383544922 404.409545898438 410.907073974609 420.227844238281 403.952728271484 382.911407470703 365.623443603516 342.607604980469 337.101745605469 334.832733154297 362.187622070313 387.357147216797 411.308776855469 437
41.974681854248 41.0126571655273 49.9958343505859 65.8798294067383 70.4598617553711 48.1738510131836 30.7910594940186 28.1392402648926 29 28 28 28 28.1392402648926 28.1392402648926 26.2044544219971 26.1392402648926 25.8314380645752 40.4177207946777 47.461784362793 37.974681854248 41.6582260131836 48.1869888305664 51.1139259338379 53.0126571655273 55.8227844238281 72.4162826538086 131.365325927734 146.03092956543 179.379745483398 207.389526367188 265.278472900391 282.441741943359 291.004638671875 268.582275390625 280.845550537109 307.303802490234 330.594940185547 329.758361816406 320.216796875 331.341766357422 327.621856689453 302.468353271484 282.727294921875 277.416748046875 239.374938964844 229.157028198242 286.780334472656 303.501678466797 281.810119628906 289.013458251953 277.240509033203 278.139251708984 278.139251708984 284.215179443359 304.139251708984 302.189880371094 305.832733154297 321.283294677734 332.411956787109 341.818298339844 352.214385986328 366.16455078125 374.291137695313 394.417724609375 394.946014404297 401.303802490234 413.925811767578 405 412.691070556641 425.063293457031 417.243560791016 408.417724609375 385.418670654297 348.417877197266 335.149658203125 334.016998291016 347.174163818359 358.369171142578 390.6708984375 428.303802490234
84.6582260131836 92.1780166625977 116.733375549316 121.243232727051 110.06169128418 71.1559066772461 46.6479721069336 53.6582260131836 45.522029876709 29.7269668579102 28.1772155761719 28.1772155761719 29.072904586792 54.3130912780762 81.8396072387695 89.7088623046875 96.6708831787109 84.6811370849609 69.8227844238281 49.8227844238281 48.4257316589355 65.5970230102539 67.2570114135742 56.2755966186523 55.7498779296875 69.4230117797852 127.52123260498 157.059600830078 195.277038574219 222.177215576172 268.037963867188 287.563537597656 306.215362548828 297.779052734375 294.302825927734 306.974670410156 329.734191894531 330.405059814453 333.078521728516 332.788177490234 332.221923828125 341.215179443359 317.400909423828 303.846343994141 286.56689453125 249.594940185547 286.203643798828 323.910583496094 347.949859619141 341.177856445313 316.630828857422 303.161682128906 292.265808105469 299.139251708984 318.063293457031 320.730651855469 331.578277587891 328.83544921875 332.236328125 342.843444824219 345.241790771484 353.177215576172 356.823272705078 367.575866699219 372.721832275391 381.258758544922 391.353302001953 391.215179443359 398.472198486328 412.088592529297 402.883361816406 392.509521484375 376.032379150391 347.726959228516 348.97900390625 351.556976318359 335.184753417969 332.267425537109 371.847290039063 414.468353271484
137.367095947266 136.958343505859 148.430374145508 147.238906860352 124.291137695313 82.9211654663086 58 85.7280883789063 72.3797454833984 58.6305084228516 45.500560760498 42.5063285827637 42.5348510742188 64.2635803222656 112.304275512695 159.523635864258 157.915725708008 111.037971496582 83.1977233886719 82.4624252319336 81.5569610595703 105.582275390625 107.240509033203 59.2209587097168 54.9809341430664 57.0126571655273 103.838165283203 142.735946655273 180.416763305664 209.325592041016 268.42236328125 288.063446044922 306.430389404297 312.839294433594 312.999359130859 320.207672119141 329.503295898438 330 332.227844238281 336 339.609832763672 353.562896728516 342.762390136719 328.145324707031 297.177215576172 274.875335693359 308.569610595703 330.37109375 381.721832275391 375.64892578125 365.753875732422 337.734191894531 317.576843261719 325.367095947266 348.895202636719 362.594787597656 366.269653320313 358.248046875 366.286987304688 362.581146240234 353.746826171875 368.506317138672 367.506317138672 369.206695556641 372.552947998047 373.468353271484 376.506317138672 378.215179443359 386.113922119141 395.518981933594 379.443023681641 363.708862304688 360.094696044922 361.030120849609 372.917175292969 366.081237792969 342.797454833984 327.291137695313 352.277679443359 386.848114013672
156.746841430664 150.477966308594 149.740264892578 149.265823364258 138.380233764648 101.668319702148 72.2278518676758 121.227851867676 125.037971496582 99.7130279541016 73.0961380004883 80.2911376953125 82.8354415893555 71.3940048217773 100.69620513916 183.131546020508 171.542373657227 123.417724609375 96.4050598144531 116.752281188965 145.280883789063 145.8759765625 117.168243408203 60.1071929931641 54.9113922119141 56.8481025695801 90.3829498291016 101.02515411377 111.300430297852 126.417404174805 199.830001831055 255.324462890625 302.924041748047 297.481018066406 313.713348388672 322.045349121094 334.206848144531 334.594940185547 331.746826171875 334.587097167969 344.556976318359 354.556976318359 356.341766357422 352.316131591797 328.511627197266 314.693969726563 344.823577880859 349.991180419922 373.139251708984 372.617523193359 379.328796386719 363.898742675781 343.569610595703 346.300598144531 357.619934082031 375.421722412109 397.297882080078 398.177215576172 399.405700683594 390.18505859375 386.549743652344 396.599090576172 397.328002929688 394.618316650391 387.579559326172 381.004638671875 399.066497802734 396.308135986328 385.311981201172 390.597351074219 372.206695556641 366.721527099609 360.210540771484 364.405059814453 377.995025634766 364.518981933594 341.797454833984 328 333.183776855469 352.481018066406
150.708862304688 166.504730224609 158.063293457031 156.230895996094 157.67073059082 138.974685668945 101.968597412109 143.669448852539 168.645416259766 127.403297424316 96.6582260131836 127.248199462891 122.171127319336 85.8227844238281 101.911392211914 179.492385864258 194.189239501953 149.479095458984 134.692672729492 156.346893310547 189.874221801758 144.236175537109 104.597663879395 58.0495109558105 53.9113922119141 54.9641075134277 64.5063323974609 77.2985076904297 78.7272872924805 93.5571212768555 128.235382080078 203.227844238281 272.582916259766 252.487747192383 247.096298217773 240.799224853516 288.354431152344 290.932067871094 301.964416503906 319.38134765625 350.658233642578 354.685943603516 355 355 354.562408447266 348.873413085938 363.584533691406 371.087951660156 375.456665039063 376.331665039063 377.607604980469 374.980438232422 357.283782958984 370.750518798828 365.187805175781 358.643646240234 381.049499511719 395.726013183594 410.451354980469 419.145172119141 412.222717285156 411.898742675781 414.227844238281 412.696533203125 406.541748046875 396.964904785156 421.008178710938 438.602478027344 421.271270751953 416.829528808594 411.075958251953 410.189880371094 397.645568847656 393.417724609375 403.401702880859 381.810119628906 355.721527099609 343.692993164063 336.047424316406 341
165.303802490234 178.367095947266 172.493667602539 173.252685546875 188.50569152832 175.722320556641 129.83544921875 159.406188964844 184.620254516602 176.223526000977 152.318054199219 165.549591064453 147.023391723633 99.1772155761719 113.306037902832 170.204940795898 200.822784423828 186.1337890625 184.316452026367 207.370132446289 215.506332397461 149.544296264648 119.455696105957 73.1555862426758 68.3037948608398 55.396411895752 68.2448348999023 90.941032409668 80.5614471435547 104.602951049805 109.278480529785 179.070495605469 208.764617919922 198.531646728516 172.824554443359 169.645568847656 222.911392211914 244.00080871582 294.291137695313 322.955627441406 354.715270996094 355 355 354.575378417969 355.891693115234 364.309234619141 375.481018066406 380 380 377.701019287109 372.898742675781 374.414031982422 370.949371337891 380.6708984375 377.159912109375 366.008819580078 363.242095947266 381.712371826172 411.819427490234 419.962036132813 411.433410644531 416.749725341797 421.916839599609 419.759490966797 407.293548583984 411.994079589844 438.527465820313 458.036041259766 446.012664794922 433.240509033203 436.466918945313 431.367095947266 425.634033203125 431.532592773438 434.974670410156 415.596862792969 391.391448974609 362.316131591797 349.1142578125 349.316467285156
177.632904052734 180 180.075942993164 185.401214599609 202.303802490234 198.27864074707 153.83544921875 172.661911010742 197.060882568359 218.619125366211 213.671051025391 210.618804931641 201.496398925781 170.016662597656 187.070663452148 207.03092956543 231.810119628906 235.405059814453 235.888320922852 251.027236938477 242.974365234375 173.719909667969 129.379745483398 94.3627624511719 93.5696182250977 85.80419921875 94.873420715332 130.746841430664 109.53581237793 104.265823364258 110.164558410645 162.654708862305 148.667846679688 148.02131652832 140.302352905273 160.558090209961 219.873413085938 252.269027709961 322.075958251953 347.254455566406 355.328460693359 355.795532226563 356.218383789063 362.966522216797 370.544311523438 375.810119628906 380.746826171875 384.518981933594 387.403289794922 389.784332275391 390.037963867188 387.772155761719 395.202545166016 395.202545166016 395.253173828125 389.638366699219 372.341766357422 382.357299804688 409.112335205078 411.278472900391 410.583251953125 425.668640136719 427.312927246094 426.477966308594 418.569610595703 424.825988769531 442.616241455078 457.544311523438 453.832550048828 442.987487792969 439.417724609375 439.860748291016 444.737854003906 452.129302978516 454.158142089844 440.205261230469 407.481018066406 365.946807861328 354 355
178.405059814453 180.015380859375 185.41227722168 197.510818481445 203.55696105957 207.88703918457 193.728897094727 193.120010375977 203.779205322266 219.151901245117 225.16455078125 227.189880371094 230.594940185547 223.620254516602 231.227523803711 249.195648193359 262.791870117188 271.054962158203 272.025329589844 275.049499511719 269.843139648438 227.082992553711 191.119857788086 179.063293457031 135.242752075195 108.86075592041 149.756774902344 167.845703125 157.291137695313 118.247077941895 104.304916381836 122.042297363281 127.492225646973 127.151901245117 131.678894042969 173.378952026367 221.927093505859 289.962493896484 332.516754150391 349.227844238281 353.346740722656 343.126586914063 358.456665039063 376.857543945313 381 380.708862304688 383.405059814453 387.569610595703 394.573791503906 402.614471435547 405.060241699219 402.367401123047 405.98974609375 404.559356689453 399.501525878906 407.953704833984 411.265808105469 408.686096191406 404.797454833984 406.806274414063 412.6708984375 436.610809326172 444.316467285156 436.417724609375 434.810119628906 438.531311035156 448.640441894531 456.139251708984 456.594940185547 453.261962890625 450.215179443359 452.043579101563 455.594940185547 459.544311523438 461.189880371094 443.911407470703 412.667205810547 381.367095947266 360.375274658203 360.620239257813
180 180.037979125977 189.227844238281 198.341766357422 206.594940185547 211.44303894043 209.113922119141 218.155746459961 207.83544921875 221.037979125977 226.265823364258 240.539489746094 245.355072021484 245.658233642578 238.536605834961 255.900329589844 259.6708984375 264.346893310547 271.594940185547 279.59814453125 286.982055664063 286.504089355469 263.933654785156 246.904174804688 200.732894897461 140.231857299805 166.644134521484 222.666564941406 221.848098754883 177.298034667969 163.178817749023 135.410034179688 144.842178344727 159.18635559082 175.777603149414 196.930145263672 229.913314819336 307.400573730469 318.867156982422 336.6708984375 336.014739990234 320.569610595703 358.126586914063 371.110076904297 367.980773925781 381.103668212891 382.113922119141 383.113922119141 388.962036132813 405.721527099609 403.703094482422 399.698913574219 395.278472900391 388.322052001953 385.256042480469 396.518981933594 420.904174804688 429.095184326172 415.315338134766 403.759490966797 412.269012451172 434.402191162109 438.987335205078 433.721527099609 438.229461669922 451.319183349609 458.455688476563 462.3291015625 461.772155761719 458.645568847656 456.949859619141 457.746826171875 456.502471923828 462.860443115234 469.498168945313 459.097259521484 432.898742675781 408.704528808594 388.586608886719 397.759490966797
180 179.075942993164 195.746841430664 202.075942993164 206.078826904297 211.610321044922 212.670883178711 227.150619506836 222.943603515625 228.658554077148 230.081390380859 252.088607788086 256.518981933594 255.506332397461 246.192443847656 253.620254516602 254.292266845703 268.13330078125 273.607604980469 279.298522949219 298.481018066406 305.413879394531 296.148681640625 272.065704345703 259.349792480469 189.988296508789 189.151901245117 268.16455078125 283.815246582031 237.634826660156 218.699890136719 186.148529052734 190.612075805664 242.194686889648 249.073547363281 222.398651123047 233.244354248047 256.76220703125 263.388244628906 301.614654541016 314.094207763672 312.149810791016 345.488708496094 361.380401611328 359.057037353516 369.100463867188 377.666076660156 367.276245117188 385.332489013672 405.721527099609 404.533569335938 398.701324462891 382.101745605469 379.481018066406 380.531646728516 390.800842285156 409.572021484375 423.319671630859 420.220153808594 413.799224853516 424.106567382813 430 429.481018066406 429.088592529297 438.582275390625 455.275909423828 459.518981933594 470.831451416016 477.025329589844 475.16455078125 471.885925292969 472.043731689453 471.620239257813 473.805786132813 480.392395019531 480.82568359375 452.177215576172 414.531646728516 414.697631835938 438.848114013672
180 179.575225830078 193.670883178711 190.886077880859 201.936706542969 211.189880371094 216.708862304688 228.531646728516 224.139236450195 228.658386230469 229.379745483398 243.416122436523 239.886077880859 252.461791992188 252.263259887695 254.139236450195 269.136993408203 293.341766357422 296.113922119141 295.97998046875 304.528106689453 305.211334228516 319.028533935547 297.746826171875 294.333770751953 255.819900512695 241.203018188477 293.302368164063 304.812530517578 286.927886962891 277.025329589844 253.363723754883 243.483261108398 295.476196289063 284.568817138672 246.645568847656 243.150619506836 226.941680908203 230.044387817383 247.715911865234 256.658233642578 257.964111328125 269.594940185547 291.139251708984 293.715270996094 314.178009033203 349.909637451172 359.027557373047 383.509704589844 399.886077880859 403.217102050781 387.106384277344 379.531158447266 381.019226074219 385.569610595703 393.83544921875 406.541900634766 410.857543945313 416.097412109375 418.962036132813 427.385040283203 430 432.227844238281 436.849212646484 440.586761474609 450.673461914063 456.487091064453 465.620239257813 478.126586914063 481.182678222656 482 485.880310058594 491.925323486328 496.742523193359 490.614807128906 474.091491699219 462.603118896484 448.352996826172 442.021148681641 457.037963867188
180 180 182.919723510742 180 192.560974121094 205.265823364258 208.987014770508 212.924057006836 209.941360473633 226.190841674805 244.135559082031 249.41291809082 246.341766357422 253.544296264648 254.531646728516 268.810913085938 283.8134765625 303.582275390625 306.443023681641 308.556976318359 309.113922119141 312.708862304688 328.6708984375 322.524444580078 319.607604980469 283.876312255859 274.215179443359 304.036529541016 306.197082519531 320.126586914063 304.607604980469 280.832885742188 274.956085205078 303.506317138672 298.830627441406 286.183776855469 270.001922607422 259.394653320313 245.012664794922 241.187789916992 229.189880371094 243.012664794922 244.645568847656 252.113922119141 255.468353271484 284.147094726563 321.099517822266 361.373809814453 382.911407470703 382.952575683594 370.620239257813 366.144683837891 376.83544921875 376.834014892578 369.332000732422 387.191162109375 399.209747314453 407.3291015625 412.532775878906 415.924041748047 421.844909667969 424.3291015625 427.594940185547 439.892791748047 451.6708984375 452.582275390625 454.274963378906 462.581634521484 480.278472900391 484.734191894531 486.772155761719 491.253173828125 498.611450195313 506 493.772155761719 473.666229248047 478.278656005859 480.565307617188 470.915557861328 473.784820556641
180 180 178.670883178711 192.384231567383 199.531646728516 203.784805297852 204 203.594940185547 203.60758972168 225.442230224609 244.508255004883 254.307159423828 255.405059814453 254.787368774414 269.101257324219 282.559844970703 286.607604980469 292.881744384766 290.113922119141 307.403930664063 310.405059814453 314.525543212891 321.050628662109 329.798095703125 327.759490966797 282.455688476563 280.374633789063 304.025329589844 305.379760742188 329.060241699219 319.817016601563 296.215179443359 298.240509033203 320.6708984375 320.278472900391 313.518188476563 311.186676025391 295.949371337891 287.959777832031 284.042938232422 265.886077880859 284.807891845703 267.8359375 259.730987548828 286.353637695313 284.126586914063 308.148040771484 327.420593261719 348.911407470703 344.790588378906 336.591888427734 345.60791015625 371.934295654297 366.754364013672 355.526824951172 368.926147460938 385.798095703125 394.616882324219 406.728088378906 410.126586914063 417.405059814453 416.533233642578 422.708862304688 435.887512207031 450.562744140625 458.747009277344 466.187316894531 474.688842773438 480.889434814453 486.860748291016 493.848114013672 496.886077880859 510.784820556641 515.739440917969 492.3291015625 486.086853027344 498.814605712891 498.081390380859 497.531646728516 489.784820556641
175.367095947266 179.037979125977 192.440475463867 206.421569824219 205.848098754883 204.677139282227 217.992309570313 221.965713500977 222.101272583008 228.733062744141 233.493667602539 244.568176269531 257.544311523438 260.253173828125 278.126586914063 282.094696044922 282.734191894531 282.088592529297 280.367095947266 303.974670410156 306.886383056641 307.734191894531 308.465484619141 328.493682861328 328.842651367188 306.885284423828 305.316467285156 310.949371337891 321.947296142578 330.037170410156 329.897766113281 324.253173828125 323.306854248047 333.253173828125 333.526031494141 331.493682861328 333.531646728516 322.015869140625 322.16455078125 320.963317871094 315.304443359375 320.388549804688 308.183471679688 290.557769775391 300.441925048828 280.91845703125 290.915710449219 304.569610595703 315.345306396484 329.038452148438 328.734191894531 340.430389404297 378.806762695313 370.827423095703 353.981414794922 356.520751953125 362.075958251953 374.157653808594 411.332305908203 418.746185302734 407.822784423828 413.265808105469 428.028839111328 430.536437988281 434.417236328125 445.840728759766 467.953369140625 480.655517578125 482.583709716797 494.379760742188 502.265808105469 506.291137695313 518.10498046875 515.729187011719 500.05078125 507.830322265625 522.797485351563 518.316467285156 510.694915771484 495
183.683547973633 195.063293457031 203.771835327148 210.708374023438 205.696197509766 203.379745483398 226.012664794922 216.669769287109 212.811401367188 226.800354003906 230 233.240509033203 256.607604980469 262.822784423828 270.364837646484 271.128997802734 264.237945556641 277.815582275391 279.895843505859 287.326080322266 294.585479736328 303.994079589844 320.367095947266 329.790100097656 329.177215576172 310.552947998047 309.316467285156 308.012664794922 314.20703125 329.464996337891 330.045837402344 331.3291015625 330.473480224609 331.3291015625 332.911407470703 342 342.974670410156 338.145965576172 340.08203125 347.677124023438 348.025329589844 351.069854736328 361.594940185547 340.417724609375 328.441589355469 278.126586914063 286.070648193359 321.90625 325.810119628906 343.16455078125 327.873413085938 336.928527832031 364.244842529297 361.611907958984 356.755493164063 360.16455078125 357.806427001953 381.725036621094 409.196594238281 411.335357666016 404.392395019531 412.898742675781 436.642852783203 447.696197509766 439.913787841797 437.592681884766 458.168731689453 471.553131103516 485 492.504730224609 508.099822998047 518.797485351563 528.012634277344 516.963012695313 503.456512451172 516.417724609375 531.923583984375 520.088928222656 497.860931396484 475.303802490234
191.708862304688 202.394012451172 208.7626953125 213.194686889648 220.050796508789 222.637557983398 214.003051757813 220.400741577148 222.050476074219 229.150131225586 231 229.83544921875 253.316452026367 257.873413085938 259.405059814453 258.998718261719 256.329437255859 278.415802001953 280 295.453277587891 315.956085205078 322.789123535156 329.787536621094 329.380859375 321.139251708984 306.151885986328 305 305 306.025329589844 329.202545166016 330.901306152344 330 330 330 332.079803466797 351.075958251953 350.974670410156 339.598937988281 339.268218994141 341.189880371094 354.063293457031 340.967468261719 348.20654296875 349.803070068359 349.008972167969 317.304931640625 330.411804199219 332.2158203125 352.773101806641 371.572174072266 359.911407470703 347.234741210938 353.701477050781 353.696197509766 359.033813476563 371.923583984375 364.618011474609 382.306518554688 406.797454833984 405 404.721527099609 412.898742675781 439.126586914063 456.569305419922 452.597503662109 447.817016601563 450.447509765625 465.487091064453 481.708862304688 489.721527099609 507.949371337891 511.063446044922 514.037963867188 509.461791992188 507.148529052734 520.658203125 531.177185058594 527.224670410156 510.200927734375 482.962036132813
191 203.113922119141 210.30989074707 213.227844238281 227.708862304688 231.410186767578 224.27848815918 214.615600585938 212.772155761719 213.518981933594 212.435501098633 227.506332397461 232.294021606445 232.025314331055 229.413070678711 237.341766357422 238.925979614258 246.265823364258 292.493499755859 305.372528076172 328.470764160156 315.924041748047 329.425079345703 330.126586914063 310.113922119141 305.290985107422 305 305 306.316467285156 327.848754882813 314.76220703125 329.3095703125 330 330 332.455688476563 354.911407470703 352.784820556641 332.696197509766 331.810119628906 328.534698486328 317.186828613281 296.177215576172 302.496246337891 332.426055908203 326.3818359375 351.896484375 358.304595947266 366.531646728516 374.543182373047 380.860748291016 380.7724609375 380.484375 382.443023681641 390.696197509766 392.342102050781 391.971801757813 374.892791748047 379.200927734375 387.569610595703 393.166961669922 405.182678222656 415.687866210938 445.001129150391 455 455 454.278472900391 452.621856689453 461.315002441406 474.105743408203 482.903869628906 487.772155761719 490.735137939453 496.506317138672 500.797454833984 506.205108642578 514.303771972656 526.855163574219 523.334716796875 500.037963867188 491
182.645568847656 186.160064697266 202.717834472656 207.430374145508 207.506332397461 207.72151184082 210.066497802734 206.107360839844 205.39241027832 190.734176635742 202.032211303711 211.583557128906 225.626663208008 228.075942993164 211.254119873047 196.688186645508 195.405059814453 211.823104858398 279.759490966797 304.439666748047 312.050628662109 305.461303710938 312.091186523438 312.444946289063 297.126586914063 303.960266113281 304.009948730469 304 305.203491210938 319.421234130859 307.527008056641 329.354431152344 330 330.801300048828 331.936065673828 345.448150634766 343.968597412109 330.722961425781 330.562896728516 324.470611572266 280.693969726563 244.47428894043 250.4951171875 275.873413085938 275.367095947266 308.872131347656 346.146942138672 382.354431152344 383.784820556641 384.569610595703 389.265808105469 402.241455078125 398.090362548828 386.718780517578 392.522521972656 404.658081054688 397.708862304688 395.250610351563 384.790405273438 380.559204101563 392.348510742188 414.498474121094 442.417724609375 456 455.569610595703 462.393371582031 466.212951660156 462.031555175781 481.011383056641 483.842346191406 478.858367919922 480.696197509766 486.740753173828 495.759490966797 502.661102294922 506.365020751953 514.494445800781 514.475708007813 490.058807373047 499.354431152344
179.822784423828 177.898727416992 199.21598815918 208.916519165039 209.416122436523 209.101272583008 205.230255126953 190.917007446289 187.936706542969 166.55696105957 183.518981933594 201.877258300781 212.047592163086 197.745712280273 188.728576660156 165.075942993164 147.16455078125 199.808685302734 271.886077880859 286.964599609375 287.624908447266 303.605499267578 295.996154785156 288.035095214844 284.458740234375 304.536926269531 321.900970458984 322.932220458984 321.769256591797 308.151885986328 307.163909912109 320.094696044922 329.354583740234 314.524749755859 330.582275390625 333.531646728516 331.128356933594 313.83544921875 314.240509033203 308.572998046875 269.819427490234 208.592376708984 201.675216674805 232.909637451172 228.749557495117 288.037963867188 336.986206054688 367.595092773438 382.177215576172 382.177215576172 387.688842773438 406.050628662109 403.679870605469 396.769897460938 395.12451171875 387.151885986328 392.47412109375 404.941680908203 400.255249023438 397.759490966797 399.720245361328 406.726959228516 420.367095947266 438.240509033203 436.632904052734 446.050628662109 459.693969726563 466.257965087891 489.508239746094 491.092620849609 492.490936279297 497.936706542969 498.800994873047 501.468353271484 503.632904052734 504.822784423828 509.658233642578 511.227844238281 498.589019775391 518.113952636719
186.72151184082 196.240509033203 203.818618774414 206.376541137695 212.160385131836 209.037979125977 192.16471862793 166.506332397461 154.384078979492 140.632904052734 157.820541381836 198.645568847656 190.025482177734 164.873413085938 146.479095458984 138.445602416992 132.485015869141 182.205093383789 254.544296264648 278.139251708984 264.249481201172 285.962036132813 284.050628662109 265.088592529297 279.493041992188 303.871978759766 321.367095947266 330.003540039063 329.810119628906 313.090057373047 297.556976318359 306.112640380859 295.501678466797 307.483734130859 327.888641357422 312.928863525391 307.228332519531 267.087493896484 257.041168212891 287.423004150391 270.873413085938 198.723114013672 167.190994262695 195.026275634766 218.969879150391 283.397369384766 299.648284912109 327.548950195313 366.796813964844 379.860748291016 383.696197509766 397.291137695313 404.974670410156 405.151885986328 398.645568847656 378.772155761719 386.759490966797 406.858367919922 405.139251708984 405.139251708984 405 403.639495849609 411.987335205078 430.860748291016 429.059936523438 437.810119628906 454.860748291016 461.392242431641 474.417724609375 478.936706542969 488.392395019531 499.6708984375 513.695251464844 520.759521484375 511.911407470703 516.856567382813 526.075927734375 525.390319824219 522.202514648438 538.303771972656
182.303802490234 184.780960083008 200.490951538086 205.682418823242 198.878860473633 188.848098754883 166.54655456543 156.112319946289 121.661911010742 96.864128112793 144.543334960938 182.426376342773 165.518981933594 139.645568847656 114.949363708496 96.6019897460938 110.710624694824 158.746841430664 229.177215576172 243.936706542969 253.986373901367 244.761260986328 243.231857299805 239.253479003906 279.135559082031 304.893615722656 309.289855957031 329.002563476563 321.120330810547 306.888488769531 284.178649902344 286.394500732422 280.430389404297 296.595245361328 308.83544921875 285.028686523438 264.6083984375 231.151901245117 195.463714599609 209.936706542969 219.791702270508 180.411956787109 140.648620605469 166.405059814453 198.566253662109 240.751159667969 236.291778564453 292.341766357422 331.567535400391 380.355865478516 384.402648925781 402.569610595703 404.997436523438 405.012664794922 398.645568847656 378 381.253479003906 392.147888183594 405.898742675781 404.759490966797 410.883178710938 429.708068847656 438.611907958984 429.101257324219 432.817169189453 444.6708984375 462.2265625 474.991821289063 476.653900146484 477.797454833984 488.123229980469 503.462921142578 508.085388183594 510.858520507813 507.474456787109 510.101257324219 508.230102539063 511.412750244141 525.995056152344 539.202514648438
179 193.772155761719 203.958984375 205.886077880859 194.544296264648 182.050628662109 144.508087158203 136.848098754883 111.309883117676 83.9583435058594 127.213905334473 157.252044677734 140.224319458008 114.398330688477 73.4766845703125 61.9766044616699 74.5827560424805 99.4683532714844 199.857559204102 212.658233642578 217.518981933594 213.202850341797 229.569625854492 223.245147705078 245.191314697266 268.572814941406 287.380554199219 309.368682861328 290.565612792969 294.139068603516 279.375915527344 265.409393310547 297.732269287109 300.335845947266 286.734191894531 277.396881103516 252.797470092773 221.949691772461 159.562408447266 149 179.336639404297 138.774871826172 112.290817260742 120.924049377441 147.561447143555 174.840087890625 203.712219238281 280.593017578125 305.292572021484 385.359405517578 397.734008789063 398.063293457031 405.061676025391 405 403.768951416016 398.703247070313 394.058654785156 387.204772949219 407.050476074219 405.759490966797 413.410034179688 440.235229492188 448.559844970703 429 431.090515136719 440.970367431641 465.575561523438 482.063293457031 480.45458984375 483.201263427734 496.16455078125 506.715423583984 501.594940185547 500.607604980469 501.443023681641 490.762542724609 487.976440429688 503.481018066406 523.883666992188 537
184.949371337891 193.189880371094 196 188.037979125977 183.949371337891 182.075942993164 140.246276855469 113.778884887695 90.3467407226563 65.826789855957 118.347862243652 135.286972045898 114.887199401855 105.569778442383 61.6582260131836 54.558723449707 72.3137283325195 78.8211822509766 139.659515380859 165.203979492188 183.676971435547 169.128982543945 157.62873840332 169.332321166992 159.428131103516 216.522827148438 261.050964355469 286.176574707031 282.088592529297 281.4228515625 244.468353271484 241.924057006836 292.962036132813 284.911407470703 261.886077880859 256.552642822266 218.209259033203 202.101272583008 133.83544921875 116.569137573242 135.202056884766 90.9367065429688 91.6660766601563 123.354431152344 131.974685668945 157.202529907227 193.961868286133 263.170013427734 299.434875488281 387.189880371094 401.225280761719 383.186676025391 391.025970458984 405.974670410156 402.925323486328 393.951599121094 373.712066650391 347.502166748047 374.103668212891 385.911407470703 400.17578125 436.615600585938 440.674560546875 430 429.989105224609 431.530853271484 445.708709716797 462.177215576172 468.440948486328 482.031402587891 484.776153564453 486.177215576172 487.842163085938 493.817016601563 489.6708984375 480.181060791016 488.379760742188 508.643646240234 522.886047363281 541.949340820313
182.962020874023 183.924057006836 183.924057006836 181.735626220703 166.023391723633 145.936706542969 132.296905517578 124.974685668945 87.6708831787109 59 101.868614196777 127.549591064453 92.3935241699219 68.9240493774414 56.9181213378906 56.032527923584 126.29386138916 137.839935302734 163.919403076172 173.744750976563 162.844573974609 137.516418457031 95.1919555664063 97.4430389404297 111.379745483398 148.253799438477 213.683547973633 221.733535766602 205.657424926758 204.839294433594 210.773910522461 217.402816772461 279.3291015625 260.126586914063 237.603912353516 233.902893066406 204.113922119141 180.043106079102 126.182823181152 87.955940246582 89.3863143920898 78.9001770019531 89.2227172851563 154.712219238281 186.886077880859 195.725204467773 231.367095947266 297 329.814605712891 386.609344482422 396.570892333984 359.240509033203 370.759185791016 407 399.657592773438 382.936706542969 366.3291015625 329.135070800781 349.167114257813 380.749877929688 389.211669921875 413.249145507813 412.569610595703 417.523956298828 430.987335205078 429.543487548828 431.499908447266 439.037963867188 454.455688476563 475.817962646484 475.991668701172 474.054473876953 481.699554443359 482.962036132813 480.377349853516 488.276550292969 511.379760742188 525.950317382813 532.898742675781 548
157.594940185547 146.33984375 141.472198486328 157.714630126953 141.74186706543 131.436950683594 131.341766357422 115.798271179199 85.7369003295898 59.5902900695801 80.2273712158203 107.084442138672 84.3268737792969 58.481014251709 55.1534996032715 89.8171768188477 164.728729248047 166.828079223633 178.563690185547 144.621688842773 101.936225891113 91.0403747558594 62.7258453369141 60.544303894043 86.0126571655273 146.44303894043 184.508255004883 183.341766357422 142.341766357422 143.551834106445 184.070343017578 188.146606445313 220.670883178711 215.075942993164 190.594940185547 172.582275390625 164.575546264648 135.987335205078 88.0350875854492 63.7955474853516 79 87.8061218261719 145.159744262695 198.170486450195 232.046630859375 263.734191894531 282.076110839844 337.685302734375 356.088592529297 382.437438964844 375.506317138672 337.96826171875 362.748107910156 387.720886230469 375.035400390625 340.573303222656 334.265991210938 309.375427246094 325.177215576172 367.783843994141 388.6708984375 405.983978271484 404.949371337891 407.200775146484 417.920532226563 437.911407470703 442.16455078125 429.618011474609 438.248992919922 450.006561279297 455.438385009766 458.559692382813 460.012664794922 468.708862304688 483.661285400391 496.400085449219 519.056396484375 520.354431152344 520.620239257813 545.848083496094
130.468353271484 116.278480529785 109.620254516602 130.696197509766 116.55696105957 102.721519470215 93.6582260131836 86.8480987548828 65.61865234375 39.5569610595703 72.2405090332031 85.4313430786133 81.3188629150391 42.1450080871582 52.2116661071777 100.063293457031 171.579071044922 179.531646728516 162.339050292969 130.038619995117 66.5742645263672 60.2658233642578 54.477165222168 56.5822792053223 98.9445571899414 134.945678710938 140.861877441406 122.918121337891 128.302352905273 130.130264282227 159.83544921875 179.604553222656 183.696044921875 164.395294189453 141.089080810547 135.468353271484 133 104.607597351074 59.9379920959473 57.9666709899902 81.2991485595703 113.848098754883 197.565460205078 220.974685668945 255.826629638672 280.531646728516 286.326232910156 322.297393798828 357.775207519531 357.556335449219 338.421417236328 336.298187255859 360.493682861328 368.531646728516 352.388732910156 318.001770019531 287.126586914063 289.421569824219 319.448333740234 363.443023681641 388.924682617188 399.83544921875 384.556976318359 384.16455078125 400.468353271484 441.101257324219 454.449920654297 449.354431152344 449.973724365234 452.177215576172 453.777130126953 455 454.330871582031 461.227844238281 475.974670410156 483.734191894531 496.962036132813 517.751953125 527.227844238281 529.645568847656
105.240509033203 91.0554428100586 84.5189895629883 105.468353271484 90.6075973510742 82.5569610595703 71.9367065429688 61.5359725952148 39.5827598571777 30.258451461792 55.7899360656738 44.1898727416992 40.4627456665039 31.0624904632568 52.1012649536133 116.029159545898 139.299957275391 108.240509033203 132.375579833984 129.271270751953 62.5644912719727 38.4936714172363 70.3507461547852 56.0126571655273 65.8311157226563 89.6075973510742 90.9857406616211 107.563369750977 166.970031738281 188.734344482422 194.400100708008 194.413711547852 140.770233154297 113.835441589355 93.3164520263672 110.645568847656 108.518989562988 80.126579284668 38.5931739807129 60.7444305419922 105.40746307373 150.871658325195 186.394332885742 197.303802490234 241.227844238281 264.621368408203 284.575561523438 311.738037109375 332.779052734375 310.443023681641 285.962036132813 280.911407470703 322.427185058594 343.914611816406 350.240509033203 316.390960693359 277.620239257813 286.607604980469 320.379760742188 364.220306396484 383.106719970703 383.814300537109 379.126586914063 378.734191894531 389.958190917969 419.712860107422 439.379760742188 449.253173828125 455.746826171875 455 455 455 454.907073974609 455.746826171875 467.607604980469 482.828887939453 494.556976318359 512.45263671875 525.666076660156 523.746826171875
84.1772155761719 73.2341003417969 76.9873428344727 84.2723922729492 81.1898727416992 80.3223876953125 62.1017456054688 39.0126571655273 29.5816383361816 30 34.3417739868164 29.4864597320557 28.5306835174561 47.2911376953125 72.0402145385742 89.2124633789063 72.4936676025391 60.5569610595703 51.5106544494629 50.5491104125977 36.8559532165527 30.6329116821289 59.558723449707 92.1273803710938 92.9873428344727 79.6622314453125 81.126579284668 118.295303344727 196.09309387207 197.050628662109 203.898727416992 180.189880371094 110.86075592041 82.5696182250977 60.6736106872559 65.4648284912109 62.4148368835449 39.1299476623535 30.3924045562744 44.5949363708496 112.370292663574 156.427337646484 156.610961914063 149.149017333984 194.55696105957 224.066009521484 265.658233642578 287.073394775391 290.325256347656 275.797454833984 241.32975769043 260.896484375 288.383911132813 301.884002685547 304.987335205078 282.66015625 253.962020874023 251.685302734375 300.308441162109 344.025329589844 359.716705322266 365.746826171875 379.3291015625 382.786102294922 398.005126953125 415.468353271484 424.531646728516 433.721527099609 443.088592529297 455.83544921875 455.6708984375 455.785461425781 446.101257324219 442.557434082031 461.778076171875 475.050628662109 492.968597412109 510.607604980469 513.392272949219 513.341796875
62.7848091125488 57.9950332641602 67.1392440795898 62.599422454834 43.8734169006348 55.9620246887207 39.8481025695801 29.5854835510254 29 29 29 29 29 34.5709037780762 56.6455688476563 42.4444808959961 34.5822792053223 33.9873428344727 28.4548950195313 28.2025318145752 29 29 35.3957710266113 66.4053802490234 120.647651672363 100.597343444824 81.2329788208008 91.0656967163086 144.063293457031 162.569625854492 165.395294189453 153.898727416992 87.5245971679688 75.3158111572266 36.2574920654297 34.392406463623 33.4145164489746 29.2151889801025 29.2773590087891 37.5013618469238 89.1480560302734 115.481010437012 114.41820526123 114.74683380127 143.933349609375 173.598937988281 223.885437011719 260.677947998047 255.983169555664 237.475250244141 239.060241699219 281.316619873047 301.334228515625 303.212615966797 291.875823974609 251.759490966797 238.21647644043 263.354431152344 308.389373779297 343.493682861328 381.922943115234 396.732574462891 399.700378417969 400.810119628906 404.091491699219 407.392395019531 408.593658447266 409.443023681641 419.481018066406 435.987335205078 434.987335205078 435.339996337891 432.816375732422 431.413238525391 445.050628662109 462.905944824219 476.554718017578 497.516265869141 496.215179443359 495.987335205078
34.7974700927734 34.7974700927734 35.6146469116211 35.5970191955566 29.6441268920898 33.4226875305176 30.5864448547363 29 29 29 29 29 29 30 33.6822624206543 29.3268699645996 29 29 29 29 29 29 30 35.3520278930664 67.7934646606445 64.3042755126953 40.8956909179688 43.057201385498 87.1746520996094 95.3651657104492 114.080436706543 112.241790771484 77.3153305053711 40.438232421875 29.2472362518311 34.7026100158691 71.5439834594727 87.3164520263672 67.4577789306641 51.0580024719238 59.9511299133301 64.0759506225586 67.8392868041992 88.5949401855469 117.265823364258 160.006729125977 190.389999389648 219.530517578125 224.430374145508 202.034286499023 258.150939941406 282.103820800781 285.316467285156 281.775665283203 252.707901000977 205.818786621094 206.516586303711 270.139251708984 318.806274414063 359.010894775391 395.582275390625 427.038146972656 420.8134765625 411 408.466125488281 401.001281738281 395.400268554688 400.544311523438 410.3291015625 424.149169921875 425.525238037109 414.189880371094 418.125946044922 432.784820556641 434.610321044922 444.922607421875 458.443023681641 472.544311523438 472.332641601563 471.797454833984
29 29 28.9452018737793 29 28 29 29 28 28 28 28 28 29 29 29 29 29 29 29 28 28 29 29 29 33.8221435546875 33.8860740661621 29.0091323852539 29.0435829162598 38.7545280456543 43.0155410766602 100.164558410645 83.2658233642578 57.9460029602051 30.3110084533691 28.7088603973389 38.3701324462891 99.6835479736328 104.9482421875 100.753082275391 89.7067794799805 54.6149673461914 57.2183952331543 75.5833969116211 80.3943252563477 86.338249206543 98.6455688476563 123.095817565918 153.117294311523 182.26838684082 174.962020874023 241.737060546875 260.974670410156 260.361480712891 243.60758972168 189.483901977539 186.997436523438 214.559692382813 269.253173828125 326.683532714844 377.354431152344 395.821197509766 432.481018066406 422.6708984375 403.265808105469 392.594940185547 382.548156738281 389.531646728516 404.151580810547 413.493682861328 429.172729492188 425.025329589844 410.632904052734 415.126586914063 432.000152587891 431.390167236328 422.2998046875 423.284729003906 426.561279296875 435.704528808594 458.16455078125
28 28 28 28 28 28 28 28 28 28 28 28 28 28 28 28 28 28 28 28 28 29 29 29 29 29 29 29 28.9567375183105 30.7139873504639 62.1139259338379 57.6257019042969 43.2579727172852 30.4936714172363 28.7088603973389 38.2784805297852 108.888320922852 144.686752319336 146.55696105957 136.075622558594 76.417724609375 82.8471374511719 121.049034118652 113.966514587402 79.7244033813477 80.3417739868164 84.7045364379883 94.0982208251953 117.96923828125 116.872940063477 133.145965576172 158.025314331055 168.405059814453 153.31982421875 163.569625854492 197.157348632813 254.795379638672 289.343200683594 342.542694091797 387.354736328125 404.292114257813 410.101257324219 407.933197021484 400.822784423828 387.458740234375 382.4013671875 393.991668701172 400.683532714844 403.215179443359 419.139251708984 421.468353271484 396.131713867188 394.924041748047 410.784820556641 409.911407470703 407.306365966797 406.656311035156 405.838012695313 423.656951904297 445.417724609375
28 28 28 28 28 28 28 28 27 27 27 28 28 28 28 28 28 28 28 28 28 28 28 29 29 29 29 29 29 29.0653743743896 33.6721687316895 33.5822792053223 32.0759506225586 29 29.7088603973389 38.607593536377 106.199005126953 142.426376342773 192.72151184082 169.233779907227 118.810127258301 108.959625244141 154.805801391602 159.173690795898 100.873420715332 100.647491455078 100.189872741699 101.203170776367 104.886077880859 104.772148132324 104.70677947998 114.037971496582 132 135.139236450195 156.387115478516 167.60807800293 206.057525634766 259.729217529297 325.143402099609 374.354431152344 406.389831542969 401.229614257813 397.062316894531 405.037811279297 394.417724609375 387.810119628906 401.493682861328 398 396.417724609375 392.497039794922 378.202545166016 360.018920898438 369.632904052734 384.147094726563 393.797454833984 396.59814453125 373.460510253906 372.403472900391 397.266632080078 422.227844238281
27 28 28 27 27 27 27 27 27 27 27 27 28 28 28 28 28 27 27 27 28 28 28 28 28 28 28 28 28 29 29 29 29 28.8841533660889 30.2784805297852 37.2531661987305 86.1850662231445 121.101264953613 206.170486450195 217.796340942383 189.330230712891 172.515625 197.85514831543 195.59797668457 168.377182006836 164.380386352539 147.354431152344 143.354431152344 130.069702148438 147.822784423828 147.101272583008 147.455215454102 150.914123535156 157 176.139236450195 181.27848815918 213.558883666992 272.796173095703 329.056243896484 349.379760742188 385.924041748047 376.354431152344 364.316467285156 377.369171142578 383.084594726563 381.278015136719 391.945526123047 402.026916503906 400.203186035156 394.683532714844 368.83544921875 353.784820556641 355.765594482422 367.416931152344 382.237609863281 383.285858154297 356.911407470703 342.827270507813 381.997741699219 408.430389404297
27 27 27 27 27 27 27 27 27 27 27 27 27 27 27 27 27 27 27 27 27 28 28 28 28 28 28 28 28 29 29 29 31.8141326904297 52.3874397277832 73.6202545166016 98.2175903320313 141.354431152344 157.322219848633 224.884475708008 230.274002075195 230.046142578125 228.569625854492 237.506332397461 246.487579345703 239.911392211914 218.507614135742 202.379745483398 214.299789428711 194.139556884766 198.085235595703 203.007049560547 214.039901733398 201.849868774414 220.343536376953 217.298187255859 207.405059814453 234.413879394531 264.908996582031 294.884643554688 324.974670410156 360.265808105469 356.91796875 362.063293457031 385.422058105469 409.16455078125 414.632904052734 401.728729248047 404.68994140625 401.848114013672 393.406188964844 382.83544921875 368.367095947266 341.228820800781 319.550567626953 316.056396484375 326.719421386719 323.193084716797 318.177215576172 358.632904052734 385.126586914063
26 26 26 26 26 26 26 27 27 27 27 27 27 27 27 27 27 27 27 27 27 27 28 28 28 28 28 28 28 29 29 31.2602138519287 52.9868621826172 78.3291168212891 103.55696105957 131.898727416992 178.24787902832 198.266296386719 211.197570800781 225.939270019531 211.253158569336 217.903701782227 210.569458007813 220.207824707031 258.577789306641 273.755493164063 278.628265380859 268.645080566406 247.974685668945 253.403137207031 271.180419921875 273.058959960938 270.430389404297 274.03125 272.911407470703 270.056243896484 274.096618652344 283.593811035156 302.386169433594 314.103820800781 333.932861328125 347.460998535156 378.696197509766 388.822784423828 410.253173828125 422.687713623047 422.354431152344 412.924041748047 409.417724609375 408.556976318359 406.088592529297 391.696197509766 354.531646728516 326.931274414063 307.291778564453 274.453918457031 263.022583007813 273.860748291016 301.1748046875 326.974670410156
26 26 26 26 26 26 27 27 27 27 27 28 28 28 28 28 28 27 27 28 28 28 28 28 27 28 27 28 28 29 29 34.4177207946777 77.1342697143555 103.55696105957 130.734176635742 171.173049926758 180.34977722168 183.962020874023 183.168075561523 186.192916870117 183.455703735352 180.920532226563 164.820220947266 191.231857299805 232.786895751953 249.295623779297 303.224639892578 300.625213623047 302.352172851563 322.012664794922 335.759490966797 344.518981933594 347.544311523438 358.170959472656 355.581970214844 322.956268310547 330.304595947266 340.276397705078 332.774719238281 350.316467285156 351.140991210938 368.004333496094 402.886077880859 402.526672363281 412.876129150391 429.96875 420.680328369141 402.111053466797 394.603912353516 394.594940185547 396.481018066406 389.251251220703 367.510986328125 352.912841796875 319.936706542969 267.024353027344 254.082992553711 255.493667602539 269.734649658203 285.443023681641
26 26 26 26 26 27 27 27 27 28 28 28 28 28 28 28 28 28 28 28 28 28 28 28 28 28 27 28 28 29 29 32.2453117370605 63.8639640808105 123.430381774902 129.860763549805 139.231689453125 160.481018066406 172.951446533203 140 157.388397216797 154.287139892578 131.823425292969 115.202529907227 144.263092041016 189.403137207031 217.784805297852 266.213745117188 288.414520263672 305.653411865234 313.645721435547 336.860748291016 361.158935546875 377.607604980469 385.151885986328 400.196594238281 400.151885986328 418.564025878906 406.847137451172 380.202545166016 398.987335205078 401.695892333984 407.554229736328 413.053680419922 419.064880371094 413.379760742188 415.009124755859 374.962036132813 376.840576171875 394.050140380859 384.194213867188 397.430389404297 392.974670410156 379.209747314453 357.982208251953 327.903045654297 323.999206542969 288.855621337891 253.199172973633 245.580993652344 246.645568847656
26 26 26 26 27 27 27 28 28 28 28 28 28 28 28 28 28 28 28 28 28 29 29 28 28 28 28 28 28 29 29 29.0740261077881 35.5595245361328 65.6373977661133 89.5542373657227 131.242263793945 151.407943725586 132.590286254883 108.223037719727 110.049034118652 106.835441589355 85.3400115966797 87.3130874633789 117.922607421875 166.379745483398 214.379745483398 260.139251708984 285.658233642578 304.822784423828 310.468353271484 335.974670410156 360.620239257813 382.327026367188 393.625549316406 408.101257324219 419.391448974609 431.470611572266 422.292907714844 408.79345703125 427.746826171875 427.280883789063 428.032379150391 428.979644775391 413.898101806641 382.701324462891 375.811248779297 347.839141845703 325.985412597656 323.604858398438 354.981414794922 372.502807617188 367.912048339844 374.610473632813 360.386810302734 351.493682861328 354.531494140625 316.171112060547 276.658233642578 255.329116821289 219.83544921875
27 27 27 27 27 27 28 28 28 28 28 29 29 29 29 29 29 28 28 29 29 29 29 28 28 28 28 28 28 29 29 29 29.0817184448242 34.5316467285156 61.481014251709 109.86075592041 128.924057006836 104.453773498535 76.3328018188477 43.2350578308105 59.9222869873047 65.4757232666016 116.931739807129 192.468200683594 203.636108398438 235.96875 281.215179443359 301.487915039063 306.405059814453 319.683532714844 343.430847167969 355.051910400391 363.151885986328 387.582275390625 404.518981933594 412.016998291016 430.759490966797 428.875030517578 428.140197753906 423.407775878906 414.189880371094 430.379760742188 431.489013671875 404.832550048828 347.455688476563 333.3291015625 331.779998779297 310.105438232422 290.151885986328 310.2685546875 311.955780029297 311.201080322266 311.442718505859 330.563385009766 361.692352294922 351.239074707031 329.218383789063 314.962036132813 278.811889648438 239.582275390625
27 27 27 27 27 27 28 29 29 29 29 29.5154628753662 30.9493675231934 30.6329116821289 29.6247386932373 29 29 28 28 29 29 29 29 29 28 28 28 28 28 28 29 29 29 28.8333606719971 40.3435363769531 102.554077148438 100.023071289063 57.7856101989746 35.2536468505859 29.5189876556396 42.4174003601074 101.328636169434 139.038772583008 208.037979125977 231.125137329102 252.927581787109 257.244659423828 263.265808105469 281.123870849609 288.063293457031 312.83544921875 330.037963867188 335.016662597656 355.797454833984 365.370452880859 389.554229736328 406.734191894531 412.665283203125 429.569610595703 421.341766357422 404.120483398438 414.391296386719 423.412261962891 381.144378662109 322.354431152344 298.560638427734 284.949371337891 265.294982910156 243.528121948242 259.889282226563 270.116821289063 273.073394775391 267.6708984375 304.580352783203 333.886077880859 342.269653320313 347.544311523438 334.228485107422 314.531646728516 286.582275390625
27 27 28 28 28 28 28 29 30 31.3265495300293 31.9367084503174 50.3667678833008 90.3425750732422 77.5024871826172 54.4526519775391 32.0211486816406 29 29 29 29 29 31.6438064575195 31.7848110198975 30.0496711730957 30 30.6962032318115 30.6962032318115 30.6962032318115 30.6962032318115 30.6962032318115 31 30 30 29.7468357086182 35.9998397827148 74.517707824707 39.0656929016113 32.2728729248047 29.865406036377 29.5189876556396 38.7399444580078 86.8101272583008 124.78833770752 203.27848815918 211.217758178711 226.924057006836 203.94841003418 191.518981933594 217.493667602539 235.367095947266 237.367095947266 234.284576416016 222.544296264648 259.979644775391 322.949371337891 356.126586914063 357.734191894531 364.201904296875 382.772155761719 381.091491699219 379.560974121094 381.974670410156 376.069549560547 349.052703857422 321.021148681641 278.831909179688 233.029159545898 233.313247680664 220.644607543945 226.308120727539 266.807556152344 263.645568847656 247.113922119141 269.462432861328 294.088592529297 318.518981933594 330.544311523438 340.478759765625 341.959777832031 303.696197509766
28 28 28 28 28 28 29 29 30.1344337463379 66.2337799072266 94.6965255737305 101.224960327148 122.513542175293 86.8354415893555 48.2784805297852 31.5447845458984 29 29 29 29 31.8360843658447 69.5728225708008 72.652458190918 33.7131881713867 29.9113922119141 30 31 31 31 31 31 31 30 30 30.6343536376953 34.0390968322754 29.9024200439453 29 29 32.7961883544922 59.3797454833984 108.763336181641 149.278167724609 162.991027832031 177.228973388672 160.810119628906 152.776153564453 142.943283081055 187.265823364258 202.102233886719 182.39241027832 181.738342285156 192.076751708984 244.171279907227 277.674102783203 270.493682861328 280.932373046875 263.201416015625 265.974670410156 273.024688720703 296.573455810547 318.83544921875 331.893127441406 320.731140136719 305.593963623047 276.774230957031 217.750198364258 214.52619934082 208.493667602539 209.848098754883 247.828720092773 231.183792114258 240.202529907227 255.268539428711 257.076110839844 270.278472900391 284.658233642578 302.875823974609 330.096130371094 306.468353271484
28 28 29 29 29 29 29 29 31.4624252319336 63.5316467285156 119.559043884277 147.72151184082 114.070983886719 83.2687072753906 57.415958404541 33.5981407165527 30 30.544303894043 30 29 29.6920356750488 55.1310691833496 75.5306854248047 34.1392402648926 29.9113922119141 30 30 30 31 31 31 31 31 30 30 29.7721519470215 30 30 30 32.9240493774414 61.2828063964844 103.519950866699 111.801155090332 131.232818603516 128.532608032227 107.316452026367 107.564010620117 112.063293457031 145.060882568359 170.715103149414 132.683547973633 144.117446899414 191.904495239258 231.170318603516 233.255401611328 231.703735351563 225.848098754883 206.734176635742 206.531646728516 222.054962158203 266.303649902344 268.297241210938 236.738983154297 236.441436767578 244.560165405273 241.551513671875 185.583724975586 167.420288085938 181.298187255859 189.839614868164 197.318374633789 202.087799072266 219.524429321289 217.191162109375 231.220474243164 243.772155761719 266.772155761719 314.68017578125 355.548309326172 328.860748291016
29 29 30.6202526092529 30 29.7812843322754 29.6202526092529 29.6202526092529 29.8229446411133 67.8213424682617 98.5585632324219 145.920211791992 173.405059814453 116.415641784668 83.7417068481445 77.6079177856445 56.063289642334 34.3305549621582 49.8647651672363 32.4621047973633 29 29 32.315975189209 53.6202545166016 32.4670715332031 30 30 30 30 30 31 31 31 31 30 30 30 30 30 30 30.0913314819336 35.7413864135742 57.7513236999512 62.063289642334 82.7341766357422 77.9865417480469 57.6708869934082 66.7316131591797 107.888961791992 130.304122924805 127.594940185547 109.785293579102 135.798110961914 168.230895996094 205.72151184082 205.560012817383 199.282653808594 175.329116821289 157.088607788086 156.683547973633 180.377029418945 242.645568847656 233.376541137695 181.877426147461 181.696197509766 201.734176635742 205.456344604492 144.845703125 140.405059814453 148.284408569336 133.703887939453 143.509536743164 158.915557861328 159.645248413086 169.29850769043 203.932861328125 252.674407958984 278.240509033203 315.7939453125 357.524444580078 331
30 29.9182815551758 48.544303894043 36.2991523742676 48.9538536071777 53.0886077880859 53.936710357666 53.1518974304199 94.7341766357422 125.481010437012 170.506332397461 181.303802490234 120.55696105957 105.910430908203 85.5286026000977 61.3058815002441 57.4520111083984 76.2784805297852 38.6202545166016 32.1139259338379 29.2039737701416 29.5949363708496 53.0503120422363 53.3610000610352 32.1257820129395 30 30 30 30 30 31 31 31 31 31 31 31 31 30 30 30.0788326263428 31.6075954437256 32.3544311523438 34.3113288879395 33.544303894043 31.651819229126 35.860279083252 67.4230117797852 104.810127258301 93.0421371459961 72.6075973510742 129.43342590332 130.65934753418 139.654388427734 157.974685668945 156.670883178711 148.177215576172 129.911392211914 130.323669433594 155.025314331055 217.987335205078 215.493667602539 170.177215576172 155.274795532227 167.002090454102 157.017471313477 105.973724365234 115.63883972168 132.861083984375 120.372695922852 116.315170288086 131.501846313477 141.637725830078 165.481018066406 191.173690795898 240.72151184082 291.181854248047 315.889434814453 331.361328125 330.151885986328
29.8860759735107 47.729850769043 55.8481025695801 62.6452484130859 76.5236358642578 70.0506362915039 76.7721481323242 69.1062316894531 117.648933410645 150.708862304688 196.450408935547 223.601028442383 201.821502685547 176.891677856445 135.205261230469 127.137641906738 145.005935668945 129.147094726563 101.698127746582 77.1390838623047 34.7827262878418 29.5949363708496 52.9807739257813 75.3055572509766 54.9266128540039 32.8998565673828 30.0112152099609 30 30 30 30 31 31 31 31 31 31 31 31 30 30 30 30 29.8860759735107 29.8860759735107 30 30.0850830078125 32.5332489013672 35.5747489929199 34.424129486084 42.7606163024902 83.1067123413086 82.2531661987305 88.3291168212891 107.481010437012 106.481010437012 106.224319458008 104.664794921875 118.523475646973 168.067459106445 204.139404296875 187.419647216797 153.643173217773 145.101272583008 139.314849853516 146.538848876953 107.91283416748 97.5569610595703 131.696197509766 118.772148132324 102.833518981934 115.588203430176 140.405059814453 165.632904052734 200.62922668457 246.425735473633 275.886077880859 281.902740478516 293.801788330078 319.341766357422
