ncols 184
nrows 32
xllcorner 692520.173125
yllcorner 5962469.885
cellsize 30.006875
NODATAVALUE -9999
194.288848876953 199.366638183594 202.542709350586 202.914566040039 201.924621582031 201.924621582031 201.311553955078 200.924621582031 203 209.115783691406 216.15348815918 224.276382446289 233.103256225586 241.628646850586 249.731414794922 254.447235107422 255.648239135742 255.20100402832 255.0625 256.964813232422 259.147888183594 261.256286621094 262.829132080078 265.060302734375 267.462310791016 270.085845947266 273.412048339844 276.608459472656 279.060302734375 280.025115966797 280.025115966797 280.025115966797 279.594970703125 279.512573242188 279.512573242188 279.728118896484 280 280 280 279.873779296875 279.487426757813 280.45166015625 284.785827636719 290.25 297.058441162109 301.341705322266 302.772033691406 303.804016113281 306.11376953125 309.512573242188 314.093688964844 317.974884033203 322.018341064453 325.693481445313 329.685150146484 335.311553955078 341.979888916016 348.764617919922 354.261291503906 358.798980712891 362.641540527344 366.517578125 370.12060546875 374.7236328125 377.783905029297 379.215179443359 380 380 381.150756835938 383.829132080078 387.432159423828 390.704498291016 394.150756835938 398.753753662109 402.075378417969 403.994964599609 404.845672607422 405 405.085418701172 406.286437988281 407.237609863281 408.175872802734 408.487426757813 409.487426757813 409.345367431641 408.747589111328 408.470001220703 408.439849853516 407.388244628906 406.924621582031 407.422119140625 408.265106201172 409.772613525391 411.640716552734 413.918365478516 415.219818115234 415.462310791016 415.462310791016 416.673370361328 419.696136474609 424.517578125 428.267700195313 430.819091796875 431 431 431 431.713562011719 432 432 432 431.482421875 431 431 431 431 431 430.2763671875 430 429.576965332031 430.025115966797 430.025115966797 429.651641845703 429.965698242188 431 431 431 431 431 428.391143798828 422.6650390625 416.350189208984 410.735412597656 407.683410644531 407.216094970703 408.583648681641 411.733673095703 417.262725830078 424.666534423828 429.291442871094 431 431 429.502502441406 427.587310791016 425.137573242188 422.150146484375 419.984924316406 419.537689208984 419.537689208984 417.738708496094 414.805999755859 411.175354003906 410.075378417969 413.422607421875 419.606018066406 426.673858642578 430.374847412109 431.025115966797 430.554840087891 430.025115966797 430.025115966797 430.025115966797 430.025115966797 428.582550048828 426.512573242188 423.281402587891 421.452270507813 420.628479003906 420.987762451172 421.663330078125 423.618103027344 426.643218994141 429.824127197266 433.427124023438 437.030151367188 440.633178710938 443.952056884766 448.135681152344 451.474670410156 454.211059570313 455.223449707031 455.236328125 453.851623535156 449.070465087891 441.87939453125
190.6201171875 193.53596496582 195.472946166992 195.708541870117 194.718597412109 194.718597412109 194.105529785156 193.718597412109 195.793975830078 202.015075683594 209.63818359375 218.486282348633 229.153884887695 239.748016357422 249.770843505859 256.024505615234 258.050262451172 257.014953613281 256.025115966797 257.290893554688 258.713562011719 260.542724609375 262.115570068359 264.346740722656 266.913696289063 270.296478271484 273.899505615234 277.502502441406 280.035186767578 281 281 281 280.759613037109 280.684875488281 280 280 280 280 280 279.753753662109 278.680877685547 278.934661865234 281.471435546875 285.361114501953 290.329864501953 294.232269287109 297.304168701172 300.219146728516 304.49169921875 309.2080078125 314.869018554688 319.871734619141 324.577880859375 328.321594238281 332.185943603516 337.122375488281 342.933715820313 349.899505615234 354.974884033203 359.512573242188 363.582916259766 367.718597412109 370.701263427734 375.211059570313 378.271362304688 379.472351074219 380 380 381.864318847656 384.542724609375 388.145721435547 391.748748779297 395.351745605469 399.954772949219 403.2763671875 405.195983886719 405.713562011719 405.713562011719 405.085418701172 406.08203125 406.634246826172 407.197204589844 407.286437988281 409 408.792022705078 407.442565917969 404.394897460938 401.8994140625 399.195983886719 398.079895019531 398.075378417969 399.076324462891 401.732299804688 405.091827392578 409.250335693359 411.504302978516 411.357299804688 411.145721435547 412.507385253906 417.105529785156 423.327331542969 428.125640869141 431.468109130859 431.634674072266 431 431 431.204376220703 431.939056396484 432 432 431.482421875 431 431 431 431 431.372924804688 430.989959716797 430.713562011719 430.749542236328 431 431 430.791290283203 430.713562011719 431 431 431 430.476470947266 430.286437988281 428.650909423828 424.983978271484 420.373626708984 416.953704833984 415.072540283203 415.035278320313 415.623107910156 418.065002441406 422.012023925781 426.500244140625 429.797058105469 430.286437988281 430.286437988281 429.323211669922 428.050262451172 426.519622802734 424.7236328125 423.268798828125 423.140716552734 423.140716552734 421.940307617188 420.293090820313 418.165832519531 417.281402587891 420.160797119141 424.589599609375 429.6162109375 432.2763671875 432.713562011719 432.713562011719 432.427124023438 432.427124023438 432.427124023438 432.427124023438 430.765228271484 428.322906494141 425.683410644531 423.854278564453 422.653259277344 421.731506347656 421.763946533203 423.130645751953 426.155792236328 429.336669921875 432.939697265625 436.542724609375 440.145721435547 443.748748779297 448.135681152344 452.657592773438 455.185943603516 456.386932373047 456.831604003906 455.361663818359 450.756652832031 443.7041015625
185.783508300781 187.087112426758 187.581680297852 187.597137451172 187.512557983398 187.512557983398 186.899490356445 186.512557983398 188.574157714844 193.894470214844 201.517593383789 210.542709350586 222.538070678711 235.559387207031 247.920806884766 255.351760864258 257.708557128906 257.19091796875 256.002136230469 256.311553955078 257.121917724609 257.852661132813 259.84375 263.145721435547 265.778900146484 269.381896972656 273.563995361328 277.502502441406 280.035186767578 281 280.600158691406 280.085418701172 280.085418701172 280.082000732422 280 280 280 280 280 279.753753662109 278.961791992188 278.969940185547 280.698486328125 281.365356445313 284.180908203125 288.197540283203 292.898956298828 298.381683349609 304.271667480469 310.664764404297 318.030151367188 323.978942871094 329.095489501953 332.839202880859 336.464538574219 340.592956542969 345.453643798828 350.434112548828 355.261291503906 359.798980712891 363.869354248047 368.005035400391 371.533782958984 375.211059570313 378.271362304688 379.472351074219 380 380 381.236175537109 383.914581298828 387.517578125 391.12060546875 394.7236328125 399.326629638672 402.648254394531 404.567840576172 405.085418701172 405.085418701172 405.007293701172 405.347381591797 406.041625976563 406.085418701172 406.085418701172 407.170867919922 406.87939453125 404.28515625 398.933624267578 394.002075195313 389.500610351563 387.472351074219 387.266326904297 389.106170654297 393.204559326172 398.098419189453 404.52197265625 407.7587890625 408.196166992188 407.343597412109 408.77490234375 414.983856201172 422.130645751953 428.507080078125 431.811370849609 431.889434814453 431 431 431 431.914581298828 432 432 431.955780029297 431.914581298828 431.914581298828 431.914581298828 431.914581298828 431.959228515625 431.2763671875 431 431 431 431 431 431 431 431 431 430.266326904297 430 429.767303466797 428.098266601563 425.536987304688 423.771057128906 423.407165527344 423.402008056641 423.431213378906 424.619232177734 426.443664550781 428.7138671875 430 430 430 429.93603515625 428.964813232422 428.678405761719 427.447326660156 426.743713378906 426.743713378906 426.743713378906 426.502502441406 425.301513671875 424.56298828125 424.487426757813 426.489013671875 428.092803955078 430.669097900391 432.562805175781 433.698577880859 433.032165527344 433 433 433 433 431.947296142578 430.487426757813 428.425506591797 426.646942138672 424.347503662109 422.939697265625 422.914581298828 424.045227050781 427.070343017578 429.538909912109 432.939697265625 436.542724609375 440.145721435547 443.748748779297 448.135681152344 452.038909912109 454.44140625 456.033050537109 456.085418701172 454.507537841797 451.936401367188 446.049011230469
176.407470703125 176.753616333008 177.653259277344 177.844223022461 177.81982421875 177.728637695313 177.115585327148 176.634552001953 178.673370361328 183.909545898438 191.532669067383 200.55778503418 212.717788696289 228.085433959961 241.664169311523 250.185928344727 253.7705078125 253.557327270508 253.425018310547 253.51155090332 253.422103881836 254.050247192383 256.176239013672 259.747192382813 263.462310791016 267.065338134766 271.301513671875 275.271362304688 277.808074951172 279.12060546875 279.934936523438 280 280 280 280 280 280 280 280.120819091797 280.477386474609 281.334533691406 281.537231445313 282.328979492188 281.506744384766 282.849243164063 286.208038330078 292.381896972656 299.587951660156 306.903167724609 313.970367431641 321.03759765625 326.864318847656 331.569030761719 335.296478271484 338.899505615234 342.449066162109 345.989959716797 350.357391357422 354.030151367188 358.567840576172 362.63818359375 366.773864746094 370.477355957031 375.095489501953 378.187133789063 379.472351074219 379.922180175781 379.010040283203 379.919586181641 382.597991943359 386.201019287109 389.804016113281 393.407043457031 398.010040283203 401.331665039063 403.251251220703 403.768829345703 403.871063232422 403.969848632813 404.884429931641 404.940765380859 405 404.897186279297 405.552368164063 403.921081542969 399.902893066406 393.065582275391 385.824127197266 380.211059570313 379.044311523438 379.474578857422 382.015411376953 387.254730224609 394.499053955078 401.507537841797 405.560577392578 406.115570068359 406.115570068359 407.643218994141 414.225891113281 422.045227050781 428.542724609375 431.819091796875 431.889434814453 431 431 431 431.914581298828 432 432 432.059814453125 432.115570068359 432.115570068359 432.115570068359 432.115570068359 432.115570068359 431.308319091797 431.106872558594 431.115570068359 431.115570068359 431.115570068359 431.115570068359 431.115570068359 431 431 431 430.266326904297 430 430.015686035156 429.817810058594 429.169006347656 429.200958251953 429.231170654297 429.231170654297 429.231170654297 429.168426513672 429.115570068359 429.951110839844 430 430 430 430 430 430.017425537109 430.115570068359 430.115570068359 430.115570068359 430.115570068359 429.231170654297 429.231170654297 429.231170654297 429.143463134766 430.075378417969 430.2763671875 431.755554199219 432.949462890625 433.763824462891 434.111511230469 434.115570068359 434.115570068359 434.115570068359 434.115570068359 433.145721435547 431.944732666016 430.743713378906 429.036071777344 426.683410644531 424.281402587891 424.115570068359 424.869354248047 427.204559326172 429.557800292969 432.939697265625 436.542724609375 440.145721435547 443.748748779297 448.135681152344 451.954772949219 454.185943603516 455.386932373047 455.412048339844 454.211059570313 452.134521484375 447.680358886719
158.909194946289 162.852325439453 164.949600219727 165.514404296875 165.056762695313 164.387130737305 163.393859863281 162.070358276367 163.939956665039 168.932723999023 176.804016113281 185.829147338867 198.713562011719 215.125625610352 229.165481567383 239.445190429688 244.158355712891 246.496673583984 247.43424987793 247.945953369141 247.281860351563 247.728637695313 250.850433349609 255.547241210938 260.500305175781 264.483551025391 268.699035644531 272.552764892578 275.12060546875 277.435974121094 279.12060546875 279.885467529297 280.265686035156 280.316589355469 280.316589355469 280.316589355469 280.112945556641 280 281.073852539063 283.035308837891 285.302398681641 287.6416015625 288.216094970703 287.216094970703 287.639038085938 291.160797119141 297.819091796875 305.295562744141 313.158386230469 318.783172607422 324.118469238281 328.741333007813 332.577880859375 336.180908203125 339.783905029297 342.924621582031 345.569946289063 348.686157226563 351.311553955078 355.849243164063 359.771636962891 363.950286865234 368.802856445313 373.622436523438 377.542724609375 379.322814941406 379.010040283203 377.5322265625 377.201019287109 379.87939453125 383.482421875 387.085418701172 390.688446044922 395.291442871094 398.613067626953 400.685394287109 401.366821289063 401.971252441406 402.452270507813 403.548187255859 404.487426757813 405 403.828979492188 401.840698242188 398.674743652344 393.145721435547 385.026702880859 377.417083740234 372.718658447266 372.288238525391 374.541137695313 378.683441162109 385.365173339844 394.051910400391 402.140716552734 406.797271728516 407.949737548828 407.949737548828 409.443969726563 415.472351074219 422.517700195313 428.410675048828 431.790466308594 431.889434814453 431 431 431 431.914581298828 432 432.100219726563 432.670318603516 433 433 433 433 433 431.781860351563 431.948486328125 432 432 432 432 432 431 431 431 430.498596191406 430.316589355469 430.409301757813 431 430.632537841797 430.821411132813 431 431 431 430.629089355469 430.081146240234 430 430 430 430 430 430 430.150756835938 431.111358642578 431.316589355469 431.316589355469 431.316589355469 431.316589355469 431.316589355469 431.139984130859 430.481414794922 430.972534179688 431.109893798828 431.683410644531 432.246246337891 433.689056396484 434.964813232422 435.316589355469 435.316589355469 435.316589355469 435.316589355469 434.346740722656 433.462310791016 432.261291503906 430.878936767578 428.768829345703 426.366821289063 425.633178710938 426.148315429688 427.760833740234 429.627777099609 432.629486083984 436.226135253906 439.829132080078 443.61669921875 448.135681152344 451.954772949219 454.185943603516 455.386932373047 455.412048339844 454.211059570313 453.323455810547 450.251251220703
137.72248840332 145.577301025391 149.790618896484 151.261306762695 150.162124633789 149.554992675781 148.045227050781 146.878646850586 148.32438659668 153.189666748047 161.406829833984 170.733673095703 183.194137573242 199.00537109375 213.703521728516 225.022506713867 231.92643737793 237.149597167969 239.872299194336 240.376876831055 240.170822143555 240.522613525391 244.211059570313 249.578414916992 255.973907470703 260.952209472656 265.156860351563 268.518005371094 271.535797119141 274.673370361328 277.628295898438 279.450927734375 280.839202880859 281 281 281 280.356781005859 280 281.159088134766 285.511169433594 290.357452392578 294.868194580078 296.105529785156 295.623107910156 295.874359130859 298.884429931641 305.542724609375 313.60302734375 320.269409179688 323.962829589844 327.230651855469 329.669311523438 332.205963134766 336.180908203125 339.648681640625 342.167755126953 343.628143310547 345.24609375 347.674743652344 351.728637695313 355.331665039063 359.948944091797 365.793975830078 371.352996826172 377.165588378906 378.755523681641 377.460510253906 374.763519287109 373.080413818359 375.7587890625 379.36181640625 383.315948486328 387.085418701172 391.170867919922 394.492462158203 396.894470214844 398.283386230469 398.447235107422 399.103515625 401.537689208984 403.704559326172 404.482421875 402.703521728516 398.082244873047 392.803924560547 385.684814453125 377.188079833984 369.527648925781 365.461486816406 366.829528808594 371.709747314453 377.999450683594 385.814056396484 395.787170410156 404.181182861328 409.802795410156 411.552764892578 411.552764892578 412.974884033203 418.074645996094 423.792572021484 428.125640869141 431.257873535156 431.429077148438 431 431 431.369323730469 432.432159423828 432.517578125 432.834167480469 433.517578125 433.517578125 433.517578125 433.517578125 433.517578125 433.517578125 432.793975830078 432.517578125 432.517578125 432.517578125 432.517578125 432.517578125 432.517578125 431.517578125 431.517578125 431.517578125 431.137847900391 431 431.070220947266 431.343322753906 430.721710205078 430.482421875 430.482421875 430.482421875 430.482421875 430.482421875 430.123626708984 430 430 430 430 430 430.491577148438 430.668334960938 431.687286376953 432 432.39013671875 432.517578125 432.436950683594 432 431.442199707031 430.607269287109 430.482421875 430.482421875 430.669677734375 431.562805175781 433.527648925781 435.464202880859 436.517578125 436.517578125 436.517578125 436.517578125 435.547729492188 435.346740722656 434.145721435547 432.668365478516 430.487426757813 428.085418701172 427.517578125 427.517578125 428.673370361328 430.296478271484 431.97021484375 435.542724609375 439.145721435547 443.029937744141 447.618103027344 451.946960449219 454.185943603516 455.386932373047 455.412048339844 454.619415283203 454.005187988281 452.333343505859
116.313629150391 127.195724487305 132.648239135742 134.211059570313 133.161712646484 133.235809326172 133.313247680664 134.265441894531 137.030151367188 142.266326904297 149.707107543945 158.477386474609 169.954116821289 185.075378417969 200.087341308594 211.353576660156 219.552764892578 225.934677124023 230.276382446289 231.251251220703 231.558197021484 232.597991943359 236.882247924805 243.587936401367 250.56282043457 256.324615478516 260.921905517578 264.393402099609 267.949737548828 271.552764892578 275.032745361328 277.839202880859 279.402008056641 279.562805175781 279.562805175781 279.562805175781 278.919586181641 278.562805175781 280.462310791016 285.689514160156 292.878936767578 299.030151367188 301.047454833984 301.874359130859 302.125640869141 305.135681152344 311.793975830078 319.854278564453 326.663787841797 328.27490234375 329.565856933594 330.562133789063 331.859283447266 335.462310791016 338.804016113281 340.743713378906 341.468078613281 341.806030273438 343.993255615234 346.924621582031 350.527648925781 354.987060546875 361.378479003906 368.266326904297 374.853271484375 377.090454101563 374.732208251953 371.221099853516 368.994964599609 371.673370361328 375.2763671875 379.557800292969 383.482421875 387.085418701172 390.407043457031 392.809051513672 393.545440673828 393.407043457031 394.320526123047 397.185729980469 400.801025390625 402.562805175781 400.144775390625 394.326965332031 387.167449951172 378.959808349609 370.552764892578 363.040191650391 360.289703369141 363.243194580078 369.905242919922 377.974304199219 386.942840576172 397.422119140625 405.527648925781 411.728637695313 414.22412109375 414.437194824219 415.859283447266 420.663330078125 425.102630615234 428.335052490234 430.819091796875 431 431 431 431.713562011719 432.914581298828 433 433.316589355469 434 434 434 434 434 434 433.2763671875 433 433 433 433 433 433 432 432 432 431.793548583984 431.718597412109 431.756774902344 431.663330078125 430.462310791016 430 430 430 430 430 430 430 430 430 430 430 430.949737548828 431.150756835938 432.252777099609 432.718597412109 433.472351074219 433.718597412109 433.562805175781 432.462219238281 431.442199707031 430.2412109375 430 430 430.101806640625 431.248657226563 433.527648925781 435.929656982422 437.718597412109 437.718597412109 437.718597412109 437.718597412109 436.748748779297 436.547729492188 435.346740722656 434.145721435547 432.170867919922 430.469390869141 429.437194824219 429.166351318359 429.459106445313 430.778900146484 431.979888916016 434.824127197266 438.427124023438 442.449035644531 447.135681152344 451.939697265625 454.185943603516 455.386932373047 455.412048339844 455 454.721435546875 454.299957275391
96.9347991943359 106.672004699707 111.874374389648 112.526832580566 112.641319274902 114.915687561035 120.508270263672 127.265823364258 134.154571533203 140.097778320313 145.815811157227 152.049133300781 162.592971801758 175.805633544922 189.650939941406 199.712326049805 206.969696044922 213.005020141602 217.036163330078 220.011962890625 221.543548583984 223.848999023438 229.47102355957 236.691040039063 244.770355224609 251.084991455078 255.883758544922 260.591217041016 265.266326904297 268.869354248047 272.0703125 273.930694580078 275.160797119141 275.321594238281 275.099792480469 274.402008056641 273.7587890625 273.402008056641 275.62451171875 282.025421142578 290.371856689453 297.430297851563 300.791015625 301.207000732422 302.562713623047 306.261291503906 313.520355224609 322.685089111328 329.894470214844 331.095489501953 331.418670654297 330.972534179688 331.859283447266 334.261291503906 337.362731933594 338.623107910156 339.160797119141 339.160797119141 340.371856689453 342.550354003906 344.804016113281 349.075378417969 355.618103027344 362.824127197266 369.736968994141 372.849243164063 370.920745849609 367.618103027344 365.391967773438 368.070343017578 371.673370361328 375.954772949219 379.87939453125 384.402008056641 387.46484375 388.762390136719 388.009735107422 385.775390625 385.892639160156 389.685516357422 394.432159423828 397.748596191406 396.47119140625 390.781677246094 384.388641357422 376.633178710938 368.226135253906 360.713562011719 358.271362304688 361.562805175781 369.020294189453 377.889434814453 387.195983886719 396.876342773438 405.531768798828 411.090454101563 414.430877685547 415.831787109375 417.244659423828 421.226135253906 425.522613525391 428.417083740234 430.819091796875 431 431 431 431.713562011719 432.914581298828 433 433.316589355469 434 434 434 434 434 434 433.2763671875 433 433 433 433 433 433 432.120147705078 432.919586181641 432.919586181641 432.919586181641 432.919586181641 432.919586181641 432.582916259766 431.381896972656 430.240295410156 430 430 430 430 430.683929443359 430.919586181641 430.919586181641 431.238464355469 431.839202880859 431.839202880859 431.915557861328 432.070343017578 433.271362304688 433.919586181641 434.673370361328 434.041595458984 433.987487792969 433.562805175781 432.36181640625 431.160797119141 430.919586181641 430.919586181641 430.919586181641 432.045227050781 434.447235107422 436.849243164063 438.152496337891 438.919586181641 438.919586181641 438.919586181641 437.949737548828 437.748748779297 436.547729492188 435.346740722656 433.371856689453 432.841217041016 431.677459716797 430.542724609375 429.966064453125 430.778900146484 431.979888916016 434.542724609375 438.145721435547 442.331665039063 447.135681152344 451.939697265625 454.185943603516 455.386932373047 455.412048339844 455 455 454.984649658203
78.8477096557617 85.0844955444336 88.3726959228516 87.5891494750977 88.3926162719727 94.9067687988281 109.040176391602 125.667152404785 138.815887451172 145.466400146484 148.406890869141 151.685089111328 159.574584960938 169.975051879883 182.259765625 190.35481262207 194.829376220703 199.012268066406 201.773864746094 206.406295776367 210.67463684082 215.623489379883 222.130645751953 229.513946533203 238.339431762695 244.869354248047 251.518569946289 256.834259033203 262.587951660156 264.961456298828 267.165893554688 268.155792236328 268.994964599609 268.155792236328 267.943664550781 267.2763671875 266.633178710938 266.2763671875 268.542297363281 275.633178710938 283.286437988281 290.39697265625 294.703521728516 296.338745117188 298.271362304688 303.285705566406 311.943115234375 322.550262451172 329.996612548828 332 331.944854736328 331.300506591797 331.755676269531 333.819091796875 335.249877929688 336.63818359375 336.63818359375 336.63818359375 337.517578125 337.751800537109 338.807952880859 341.281402587891 347.387603759766 354.648254394531 362.512573242188 366.212738037109 365.010864257813 362.753692626953 361.788940429688 364.467346191406 368.070343017578 372.269927978516 376.261840820313 380.950103759766 384.798980712891 384.918823242188 381.460296630859 377.289184570313 375.964813232422 379.260681152344 385.469329833984 390.221099853516 390.480865478516 388.287292480469 383.371795654297 377.045227050781 368.535888671875 360.645904541016 357.311553955078 360.899505615234 369.040496826172 377.889434814453 386.18798828125 395.57080078125 403.302703857422 408.889434814453 412.286437988281 414.688446044922 417.329315185547 421.309753417969 425.583831787109 428.537689208984 430.830017089844 431 431 431 431.713562011719 432.914581298828 433 433.278411865234 433.87939453125 433.87939453125 433.87939453125 434 434 434 434 433.075378417969 433 433 433 433 433 433.015747070313 433.12060546875 433.12060546875 433.765777587891 434 433.880676269531 433.079986572266 431.989471435547 431.031524658203 430.173645019531 430.103637695313 430 430.065460205078 430.864318847656 432.065338134766 433.2412109375 433.2412109375 433.2412109375 433.2412109375 434.190948486328 434.2412109375 434.550537109375 435.12060546875 435.12060546875 435.005462646484 434.863006591797 433.763824462891 433.12060546875 432.453308105469 432.2412109375 432.2412109375 432.2412109375 433.298950195313 434.884429931641 437.050262451172 439.019989013672 439.12060546875 439.688446044922 440.12060546875 439.150756835938 437.949737548828 436.748748779297 436.12060546875 434.666198730469 434.2412109375 433.044128417969 431.743713378906 431.050903320313 431 431.979888916016 434.422119140625 437.689270019531 441.331665039063 446.825042724609 451.937866210938 454.185943603516 455.386932373047 455.412048339844 455 455 455
64.2555236816406 66.8953323364258 67.819091796875 65.8291473388672 68.0780029296875 78.9503326416016 100.798713684082 126.363830566406 145.39680480957 153.04020690918 154.325088500977 154.967041015625 160.814849853516 168.811187744141 178.405517578125 184.065246582031 186.081008911133 187.831726074219 189.849243164063 194.87939453125 200.884414672852 207.091461181641 214.045227050781 221.63818359375 229.814071655273 237.020095825195 244.226135253906 250.597991943359 256.497497558594 258.587371826172 258.964935302734 258.783905029297 259.623107910156 259.427124023438 259.504699707031 259.748748779297 259.105529785156 258.748748779297 260.974884033203 267.226135253906 274.87939453125 281.989959716797 286.569610595703 289.542724609375 293.226531982422 299.024841308594 308.914581298828 320.577880859375 328.522613525391 331.356781005859 331.046569824219 330.466674804688 330.080413818359 330.754486083984 331.569213867188 332.070343017578 332.070343017578 332.070343017578 332.091369628906 332.391967773438 332.542266845703 334.503662109375 339.738708496094 346.861785888672 354.427124023438 358.542724609375 358.613555908203 357.517578125 357.864318847656 360.631591796875 364.467346191406 368.070343017578 372.552764892578 376.928924560547 379.582855224609 378.623107910156 373.213684082031 367.005035400391 364.303863525391 368.145721435547 375.839202880859 381.935272216797 383.959808349609 383.857177734375 380.932922363281 376.23876953125 368.725524902344 360.417083740234 358.190948486328 361.778900146484 369.482421875 377.889434814453 385.39697265625 394.60302734375 401.712066650391 407.688446044922 411.311676025391 414.099945068359 417.709777832031 421.919586181641 426.030151367188 429.417083740234 430.909545898438 431 431 431 431.713562011719 432.914581298828 433 433 433 433 433 434 434 434 434 433.075378417969 433 433 433 433 433 433.130645751953 434 434 434.235961914063 434.321594238281 434.277984619141 433.771606445313 432.783905029297 431.582916259766 431.019378662109 430.859283447266 430 430.542724609375 431.98291015625 433.266326904297 435.321594238281 435.43310546875 435.643218994141 435.643218994141 436.287506103516 436.321594238281 436.321594238281 436.321594238281 436.321594238281 435.366821289063 435.321594238281 434.964813232422 434.321594238281 434.321594238281 434.321594238281 434.321594238281 434.321594238281 434.884429931641 436.085418701172 438.251251220703 439.487426757813 440.321594238281 440.889434814453 441.321594238281 440.351745605469 439.150756835938 437.949737548828 437.321594238281 436.547729492188 436.321594238281 434.969848632813 432.944732666016 431.557861328125 431 431.979888916016 433.542724609375 437.022918701172 441.010040283203 445.814056396484 451.286254882813 453.864318847656 455.189758300781 455.412048339844 455 455 455
55.3869361877441 55.6772041320801 55.8643226623535 54.9248504638672 58.2309036254883 72.1751480102539 97.5113525390625 126.963134765625 149.181579589844 158.748458862305 161.353652954102 162.599411010742 166.84831237793 173.25537109375 179.964874267578 183.467330932617 184.342697143555 184.522613525391 185.087371826172 189.371688842773 194.121383666992 199.499237060547 205.449935913086 211.476028442383 218.517379760742 225.095748901367 231.674118041992 237.854278564453 243.212768554688 244.63818359375 244.20100402832 243.971725463867 245.438568115234 247.812683105469 250.18635559082 251.572814941406 251.221099853516 250.864318847656 252.567840576172 258.947784423828 266.76123046875 273.921691894531 279.705139160156 284.086578369141 288.437194824219 295.050262451172 305.311553955078 316.528411865234 325.075378417969 327.909545898438 327.670562744141 326.728637695313 325.527648925781 324.278686523438 323.159912109375 322.532257080078 322.251251220703 322.251251220703 322.873321533203 324.714050292969 326.820129394531 329.944793701172 335.301513671875 341.817504882813 347.982696533203 351.336669921875 351.864318847656 351.446899414063 352.577087402344 356.015075683594 360.591186523438 364.467346191406 368.030578613281 370.941101074219 371.672027587891 369.597137451172 363.347106933594 357.336578369141 354.553344726563 358.837066650391 367.2763671875 373.946746826172 376.231170654297 375.681365966797 373.713562011719 370.348907470703 364.905731201172 358.528015136719 357.718231201172 361.778900146484 369.482421875 377.889434814453 385.39697265625 394.655548095703 402.187713623047 408.055267333984 412.155792236328 415.7587890625 419.36181640625 422.964813232422 426.810119628906 429.569396972656 430.909545898438 431 431 431 431.713562011719 432.914581298828 433 433 433 433 433 434 434 434 434 433.075378417969 433 433 433 433 433 433.130645751953 434 434 434.733673095703 435 434.864318847656 434 433.462310791016 432.261291503906 431.060302734375 430.932830810547 430.522613525391 431.065338134766 433.010040283203 434.467346191406 436 436.346740722656 437 437 437 437.522613525391 437.522613525391 437.522613525391 437.522613525391 437.066802978516 436.604034423828 436.688446044922 436.045227050781 436.045227050781 436.045227050781 436.045227050781 436.045227050781 436.608032226563 437.809051513672 439.974884033203 441.211059570313 442.045227050781 442.613067626953 443.045227050781 442.075378417969 440.874359130859 439.673370361328 439.045227050781 438.271362304688 437.535736083984 436.170867919922 433.948760986328 431.844207763672 431 431.467803955078 432.925567626953 435.718597412109 439.286437988281 444.090454101563 448.894470214844 452.140716552734 453.728637695313 454.674102783203 454.889709472656 455 455
51.9818420410156 51.9927520751953 52.8618202209473 53.7582626342773 59.2230758666992 74.0133819580078 99.0538635253906 127.62084197998 150.896194458008 163.504257202148 169.966033935547 174.366882324219 178.95979309082 183.307586669922 187.132263183594 188.763824462891 189.341705322266 189.341705322266 188.638916015625 189.471099853516 189.906921386719 191.530868530273 194.327667236328 199.169143676758 204.137817382813 208.717437744141 213.395217895508 218.265731811523 221.56282043457 222.356735229492 221.683197021484 222.165832519531 226.027801513672 232.841033935547 239.76985168457 243.696868896484 244.015075683594 243.047393798828 244.884414672852 251.203735351563 258.941711425781 266.547729492188 272.904510498047 278.655639648438 285.015991210938 291.843597412109 301.708557128906 311.8994140625 319.507751464844 321.658294677734 321.531890869141 320.247253417969 317.555389404297 313.555938720703 309.677093505859 307.407043457031 306.389373779297 306.771179199219 308.865417480469 314.333709716797 321.412994384766 328.193389892578 333.717651367188 338.802703857422 342.723236083984 344.512451171875 344.658294677734 344.658294677734 345.93896484375 350.687438964844 356.360534667969 360.864318847656 362.951599121094 362.094696044922 360.075164794922 356.386932373047 351.205139160156 346.866119384766 345.505554199219 350.742492675781 359.699462890625 365.913879394531 367.180511474609 364.517456054688 361.246368408203 358.195556640625 356.273559570313 354.298553466797 356.631896972656 361.778900146484 369.122406005859 377.671264648438 386.047882080078 395.499847412109 404.474456787109 411.180908203125 415.790496826172 418.953521728516 422.487426757813 425.86865234375 428.602600097656 430.432159423828 430.975006103516 431 431 431 431.197204589844 432.852752685547 433 432.770904541016 432.2763671875 432.2763671875 432.2763671875 434 434 434 434 433.075378417969 433 433 433 433 433 433.036102294922 433.2763671875 433.2763671875 434.010040283203 434.952728271484 434.864318847656 434 433.462310791016 432.795837402344 431.783905029297 431.621795654297 431 431.542724609375 433.487426757813 434.944732666016 436.7236328125 437.070343017578 437.7236328125 437.7236328125 437.7236328125 438 438.254547119141 438.7236328125 438.7236328125 438.7236328125 438.60302734375 439.090454101563 438.850860595703 439.170867919922 438.476318359375 438.447235107422 438.447235107422 439.010040283203 440.211059570313 441.6787109375 442.889434814453 443.989074707031 444.604187011719 445.279968261719 444.477386474609 443.400024414063 442.798980712891 441.756317138672 440.113372802734 438.748748779297 436.648254394531 434.246246337891 431.844207763672 430.436370849609 430.985443115234 431.63818359375 433.763854980469 436.462615966797 440.964813232422 445.768829345703 449.149627685547 451.326629638672 452.978210449219 454.065338134766 454.992736816406 455
52.8939437866211 53.4572868347168 56.1544151306152 59.5972328186035 66.7780609130859 82.0210113525391 104.485366821289 129.916687011719 152.133407592773 168.085601806641 179.714736938477 187.861587524414 193.371856689453 196.193984985352 197.338272094727 197.428802490234 198.04850769043 197.634979248047 196.40266418457 193.054183959961 189.269485473633 186.036514282227 185.501876831055 187.743240356445 190.308883666992 192.833999633789 195.369338989258 197.153457641602 199.326904296875 198.271362304688 197.911773681641 200.250518798828 207.029266357422 218.297439575195 229.330474853516 235.820938110352 237.403778076172 236.532669067383 237.67839050293 243.929641723633 251.169387817383 259.016448974609 266.483734130859 272.678405761719 279.865478515625 287.467346191406 295.972839355469 304.496551513672 311.63818359375 313.764587402344 314.029449462891 312.211059570313 308.155212402344 301.456817626953 295.803619384766 292.442199707031 290.627899169922 290.844207763672 295.276580810547 304.281494140625 316.019958496094 326.472106933594 332.552764892578 335.307098388672 336.668701171875 337.452270507813 336.829650878906 336.527648925781 337.898834228516 344.089721679688 351.205230712891 356.336669921875 356.5546875 351.368896484375 346.724731445313 342.420928955078 338.727386474609 336.736022949219 337.793975830078 343.722137451172 352.82568359375 358.517578125 357.807464599609 352.315155029297 347.030151367188 344.830291748047 346.677368164063 349.941375732422 355.545562744141 361.778900146484 368.984924316406 377.587951660156 387.128173828125 397.746185302734 407.884429931641 415.248565673828 420.512573242188 423.507537841797 426.090454101563 428.820068359375 429.470428466797 430.708557128906 431 431 431 431 431 431.983520507813 432.075378417969 432.051513671875 432 432 432 433.075378417969 433.075378417969 433.075378417969 433.075378417969 432.150756835938 432.075378417969 432.075378417969 432.075378417969 432.075378417969 432.075378417969 432.196166992188 433 433 433.733673095703 434.070465087891 434.065155029297 434 433.462310791016 433 432.929168701172 431.989379882813 431.924621582031 432.467346191406 434.412048339844 435.869354248047 437 437.346740722656 438 438 438 438.924621582031 438.951141357422 439 439.696960449219 440.807434082031 440.860992431641 440.897735595703 441.407043457031 441.849243164063 441.776885986328 441.773864746094 441.773864746094 442.336669921875 442.831451416016 443.814056396484 445.015075683594 446.216094970703 446.849243164063 447.618103027344 447.776153564453 446.615905761719 445.477386474609 444.2763671875 442.301513671875 439.972991943359 437.572875976563 435.170867919922 432.768829345703 430.425537109375 430.073852539063 430.269927978516 431.532653808594 433.899505615234 437.561614990234 442.165832519531 445.597991943359 448.715545654297 452.206939697266 453.788940429688 454.989959716797 455
55.502513885498 56.794979095459 60.9659614562988 67.0779037475586 76.5778884887695 91.4371871948242 111.75048828125 134.267822265625 155.839202880859 172.626113891602 187.725769042969 198.032424926758 204.030151367188 206.733673095703 205.753768920898 205.753768920898 206.376876831055 206.753768920898 204.653259277344 199.425399780273 192.743713378906 187.366836547852 184.221099853516 184.654510498047 185.444427490234 185.142669677734 184.207748413086 183.539154052734 183.367446899414 183.069396972656 182.989593505859 186.256057739258 194.356887817383 207.934646606445 220.271209716797 228.07063293457 230.452667236328 230.603546142578 231.969192504883 238.069564819336 244.677490234375 251.746673583984 259.109405517578 265.170867919922 272.345306396484 279.852722167969 287.537689208984 294.743713378906 301.609954833984 303.906555175781 304.801177978516 303.718170166016 299.899322509766 293.336761474609 287.861968994141 284.133453369141 282.462310791016 282.125640869141 287.449066162109 296.9365234375 310.395141601563 321.215454101563 326.351745605469 328.430938720703 327.584014892578 327.551818847656 327.113922119141 327.853576660156 330.488006591797 336.618530273438 343.733673095703 348.140899658203 347.864318847656 341.261291503906 334.407379150391 330.090759277344 329.206451416016 329.579559326172 332.165161132813 338.556182861328 346.296478271484 350.662261962891 349.355590820313 341.919586181641 336.825561523438 336.606140136719 341.477447509766 349.499298095703 357.201019287109 364.444274902344 371.738708496094 380.253967285156 389.711120605469 400.268768310547 410.36181640625 417.70068359375 422.939697265625 425.934661865234 428.336669921875 430.393646240234 431 431 431 431 431 431 431 431.914581298828 432 432 432 432 432 433 433 433 433 432.075378417969 432 431.958953857422 431.874359130859 431.874359130859 431.874359130859 432 432 432 432.733673095703 433.934661865234 434 434 433.462310791016 433 433 433.125640869141 433.125640869141 433.668334960938 434.869354248047 436.070343017578 437 437.346740722656 438 438 438 439 439.307556152344 439.943817138672 440.753753662109 441.954772949219 442.155792236328 443.044830322266 443.683410644531 444.125640869141 444.125640869141 444.145843505859 444.251251220703 444.743377685547 445.125640869141 446.090454101563 447.291442871094 448.492462158203 449.125640869141 449.894470214844 450.125640869141 449.251251220703 448.87939453125 447.105529785156 444.703521728516 441.326629638672 438.899505615234 436.12060546875 433.095489501953 431.37451171875 431.125640869141 430.306518554688 431.507537841797 433.291442871094 436.477386474609 440.204132080078 443.785675048828 447.673370361328 451.301513671875 453.604400634766 454.989959716797 455
60.9598007202148 62.7839202880859 68.269287109375 77.0334320068359 88.7258148193359 103.965911865234 122.61457824707 142.512985229492 162.165924072266 178.371627807617 192.894470214844 204.049362182617 210.523818969727 213.299560546875 212.95979309082 212.95979309082 213.582916259766 213.95979309082 212.194137573242 207.556274414063 202.083053588867 197.08039855957 193.934677124023 192.573272705078 191.477386474609 188.651901245117 184.646682739258 180.820785522461 178.649673461914 178.390472412109 180.813232421875 185.497482299805 192.906799316406 204.035980224609 214.224334716797 221.251251220703 225.103607177734 227.08918762207 229.854278564453 234.743667602539 239.516876220703 244.396301269531 249.731643676758 253.985931396484 259.927978515625 266.140716552734 273.346740722656 280.552764892578 286.937652587891 290.676666259766 293.163055419922 294.490325927734 293.837005615234 290.858489990234 288.125396728516 286.321868896484 285.513153076172 285.286437988281 288.634490966797 295.022308349609 303.136260986328 309.747100830078 313.120513916016 313.427124023438 313.244415283203 313.380432128906 315.193664550781 317.768005371094 321.688446044922 326.588287353516 332.2861328125 335.7587890625 335.201019287109 328.977142333984 323.307983398438 321.377227783203 322.273468017578 325.635620117188 329.688446044922 334.685333251953 340.467071533203 343.728637695313 341.662384033203 336.30029296875 332.150482177734 333.964935302734 342.327392578125 352.720001220703 363.563842773438 371.36181640625 379.271362304688 386.947723388672 394.962463378906 404.044891357422 412.566864013672 419.010040283203 423.814056396484 427.1044921875 429.503234863281 431 431 431 430.702911376953 430.70947265625 431 431 431 431.615844726563 431.673370361328 431.673370361328 431.673370361328 431.673370361328 431.673370361328 432.673370361328 432.673370361328 432.673370361328 432.673370361328 431.748748779297 431.673370361328 431.453430175781 431 431 431 431.716033935547 432 432 432.494018554688 433.608032226563 433.673370361328 433.783325195313 433.462310791016 433.241271972656 433.326629638672 434.045959472656 434.326629638672 434.869354248047 435.827423095703 436.944732666016 437.326629638672 437.560119628906 438 438 438 438.673370361328 438.788269042969 439.372222900391 440.427124023438 441.628143310547 442.155792236328 443.356781005859 444.739990234375 445.326629638672 445.64013671875 445.761535644531 446.326629638672 446.510467529297 446.653259277344 447.302947998047 448.492462158203 449.693481445313 450.512115478516 451.422119140625 451.653259277344 451.326629638672 451.076232910156 449.507537841797 447.105529785156 443.728637695313 441.301513671875 438.522613525391 435.686248779297 433.422119140625 432.659820556641 431.834167480469 433.035186767578 434.819091796875 438.261077880859 442.919586181641 446.351745605469 449.274871826172 452.310485839844 453.788940429688 454.989959716797 455
68.6934661865234 70.5175857543945 76.9746246337891 88.3874893188477 102.075378417969 117.883087158203 134.676528930664 152.871978759766 169.353851318359 184.231155395508 197.785995483398 207.909545898438 214.67839050293 218.141265869141 219.754852294922 220.388549804688 220.987808227539 221.165832519531 220.116973876953 217.555206298828 214.445724487305 211.150527954102 208.20100402832 206.783081054688 203.625411987305 198.659530639648 191.387115478516 184.114700317383 179.601470947266 180.943710327148 185.848281860352 191.884414672852 197.400268554688 203.724197387695 209.495849609375 214.867172241211 219.970230102539 224.840637207031 229.157043457031 232.951217651367 235.075576782227 237.79833984375 240.485717773438 242.348983764648 245.068435668945 250.381912231445 257.243255615234 264.266326904297 271.918609619141 277.235260009766 282.105682373047 286.317810058594 289.581298828125 291.594604492188 292.913940429688 293.937408447266 294.571105957031 294.292694091797 294.717102050781 295.151641845703 296.053497314453 296.705017089844 297.078979492188 296.650177001953 297.283874511719 299.111541748047 303.098999023438 307.797088623047 313.056121826172 316.462219238281 319.657043457031 321.516418457031 320.788940429688 317.014495849609 314.040679931641 314.581176757813 317.977478027344 323.415710449219 328.779205322266 332.315826416016 335.365020751953 337.050262451172 335.582916259766 332.241180419922 330.779937744141 335.002105712891 345.517578125 358.471557617188 370.884552001953 379.768829345703 387.415893554688 394.356781005859 401.088195800781 407.605255126953 413.876098632813 418.744903564453 423.657623291016 427.236297607422 429.633575439453 431 430.732208251953 430.472351074219 430.042724609375 430.110565185547 431 431 431 431 431 431 431 431 431 431.472351074219 431.472351074219 431.472351074219 431.472351074219 431.035614013672 431 430.827667236328 430.472351074219 430.472351074219 430.472351074219 431.130645751953 432 432 432 432.934661865234 433 433.159027099609 433.218383789063 433.738708496094 434 434.594116210938 435 435.542724609375 436.392425537109 437.472351074219 438 438 437.710998535156 437.472351074219 437.472351074219 438 438.166168212891 438.764007568359 439.356048583984 440.930908203125 442.237976074219 443.696166992188 445.115570068359 446.400360107422 447.487426757813 447.612487792969 448.055267333984 448.321136474609 448.527648925781 448.527648925781 449.165832519531 450.366821289063 451.867462158203 453.296478271484 453.527648925781 453.055267333984 452.859069824219 451.381896972656 448.979888916016 446.117401123047 443.703521728516 441.123474121094 438.700103759766 436.497497558594 435.592407226563 434.668365478516 435.437194824219 437.528686523438 441.304962158203 446.5146484375 449.856658935547 451.829132080078 453.3330078125 454.316589355469 454.995239257813 455.527648925781
77.8291473388672 80.0963134765625 87.8106079101563 101.142997741699 116.487434387207 132.100509643555 147.433227539063 163.311157226563 177.270416259766 190.807373046875 203.396987915039 212.969848632813 219.738693237305 224.397415161133 226.025421142578 227.793975830078 228.371856689453 228.371856689453 228.093688964844 227.541656494141 226.441879272461 225.317398071289 223.085433959961 220.195983886719 216.193374633789 208.902877807617 198.745635986328 189.196212768555 183.246734619141 186.203475952148 192.994979858398 200.02783203125 203.395141601563 205.490005493164 206.708923339844 210.176483154297 216.498825073242 223.378952026367 229.102722167969 231.517593383789 232.066848754883 232.165878295898 233.206024169922 233.67839050293 235.198837280273 239.28352355957 245.913177490234 253.025131225586 261.216156005859 268.096282958984 274.976409912109 281.677917480469 288.232147216797 293.72607421875 298.817993164063 302.171020507813 303.763824462891 303.236175537109 302.098419189453 297.071075439453 292.170562744141 287.774780273438 285.361267089844 284.2412109375 285.639923095703 289.133117675781 294.812255859375 302.002868652344 307.964813232422 309.964080810547 310.268035888672 310.170867919922 309.932220458984 308.584503173828 308.495513916016 311.341461181641 317.000946044922 324.679595947266 329.899505615234 331.884094238281 332.048461914063 332.000885009766 330.954620361328 329.518157958984 330.279022216797 337.027160644531 348.897247314453 363.571350097656 377.337463378906 385.989959716797 393.402008056641 399.596588134766 405.028015136719 409.813323974609 414.206024169922 418.507537841797 423.004974365234 426.080413818359 428.482421875 430.271362304688 430.133636474609 430 430 430.110565185547 431 431 431 431 431 431 431 431 431 431 431 431 431 431 431 430.673370361328 430 430 430 431.130645751953 432 432 432 432.253631591797 432.271362304688 432.516693115234 433 433.738708496094 434 435.102508544922 435.728637695313 436.271362304688 436.930450439453 437.944732666016 438 438 437.452270507813 437 437 437.271362304688 437.271362304688 437.824127197266 438.820587158203 440.909545898438 443.040191650391 444.728637695313 445.844207763672 447.487426757813 448.688446044922 448.889434814453 449.728637695313 449.728637695313 449.728637695313 449.728637695313 449.894470214844 451.095489501953 452.864318847656 454.497497558594 454.728637695313 454.728637695313 454.627746582031 453.311553955078 450.909545898438 448.507537841797 446.105529785156 443.703521728516 441.722595214844 439.628143310547 438.471923828125 437.457275390625 437.839202880859 440.206024169922 444.380249023438 449.392883300781 452.643218994141 454.231170654297 455.028900146484 454.942718505859 455 456
90.2261276245117 92.6582946777344 100.69849395752 115.295776367188 131.829147338867 146.676071166992 160.012985229492 173.365798950195 185.673370361328 198.884414672852 211.261306762695 221.408782958984 228.532669067383 232.527633666992 233.949752807617 235.929641723633 236.507537841797 236.507537841797 236.507537841797 236.491622924805 236.43717956543 235.809051513672 233.008087158203 229.389053344727 224.207214355469 215.7587890625 204.949752807617 194.19938659668 188.718597412109 192.065322875977 199.677780151367 207.407028198242 209.636932373047 207.784545898438 206.016967773438 207.870300292969 214.597961425781 222.920501708984 229.048400878906 230.087677001953 229.693466186523 229.140701293945 229.989944458008 231.12060546875 232.806442260742 237.261306762695 243.91960144043 251.919799804688 260.261291503906 267.467346191406 275.098480224609 282.809051513672 290.813903808594 298.020111083984 303.763824462891 307.643218994141 309.381896972656 308.854278564453 306.523040771484 300.891754150391 293.088165283203 287.256286621094 283.382781982422 282.934600830078 283.794982910156 288.291442871094 294.922485351563 302.979888916016 308.939971923828 309.415771484375 306.705352783203 304.580383300781 305.098937988281 306.145111083984 308.086029052734 313.685882568359 320.819091796875 328.909545898438 334.739685058594 335.18603515625 332.465576171875 330.359985351563 328.354034423828 327.224792480469 329.507141113281 337.432159423828 350.272827148438 366.389343261719 379.597991943359 387.453765869141 393.095306396484 397.983825683594 403.645263671875 408.629089355469 414.206024169922 418.507537841797 422.160034179688 424.87939453125 427.183288574219 428.425659179688 429.542175292969 430 430 430.110565185547 431 431 431 431 431 431 431 431 431 431 431 431 431 431 431 430.673370361328 430 430 430 431.130645751953 432 432 432 432 432 432.336669921875 433 433.738708496094 434 435.140716552734 436 436.542724609375 437 437.944732666016 437.864532470703 437.070343017578 436.522613525391 435.374298095703 435.140716552734 435.140716552734 435.140716552734 436.207336425781 439.2255859375 442.726806640625 445.170867919922 447.190979003906 448.385986328125 449.618103027344 450.819091796875 450.87060546875 450.929656982422 450.929656982422 450.929656982422 450.929656982422 451.095489501953 452.296478271484 453.537445068359 454.768829345703 455 455 455 454.386840820313 452.381896972656 450.886199951172 448.507537841797 446.105529785156 444.281402587891 442.301513671875 440.87939453125 439.859283447266 440.2412109375 442.066131591797 446.065338134766 451.784973144531 455.045227050781 455.913726806641 455.412048339844 455 455 456
105.344635009766 107.181861877441 115.97989654541 129.847930908203 147.311553955078 161.580764770508 172.130950927734 183.210220336914 193.951721191406 207.507537841797 221.194412231445 232.12060546875 239.271362304688 243.042602539063 243.106796264648 243.783920288086 243.783920288086 243.783920288086 243.783920288086 244.010055541992 245.155242919922 244.479049682617 241.079818725586 236.214996337891 229.105484008789 220.934677124023 210.77619934082 200.958236694336 195.858871459961 199.536987304688 207.844223022461 214.336685180664 214.835083007813 210.266098022461 206.778900146484 206.972381591797 213.633163452148 222.774124145508 229.045227050781 229.753768920898 228.611190795898 228.130645751953 230.051055908203 233.686492919922 237.854598999023 243.7587890625 250.964828491211 258.170867919922 266.376892089844 273.839202880859 282.186492919922 289.864318847656 296.958068847656 302.939025878906 308.175872802734 311.256195068359 312.924621582031 312.39697265625 310.139190673828 304.994232177734 298.50830078125 293.328521728516 290.306518554688 289.115570068359 290.587951660156 294.407043457031 301.7587890625 310.925964355469 314.894866943359 313.511627197266 308.488311767578 304.904510498047 305.255584716797 308.784820556641 313.227722167969 320.291442871094 328.698486328125 337.105529785156 341.687316894531 339.719116210938 334.891082763672 330.106018066406 328.125 326.221099853516 328.549865722656 336.924621582031 351.015075683594 366.628143310547 379.429748535156 385.550659179688 388.83984375 392.311553955078 397.831085205078 405.207153320313 413.023498535156 417.507537841797 420.315124511719 421.655700683594 423.727355957031 425.351745605469 427.820068359375 429.670471191406 430.790710449219 430.096099853516 430.869354248047 430.423767089844 430.713562011719 431 431 431 430.482421875 430 430.799438476563 430.869354248047 430.911376953125 431 430.905456542969 430.869354248047 430.869354248047 430.585388183594 430 430 430.121459960938 431.130645751953 432 432 432 431.877868652344 431.887084960938 432 432.467437744141 433.608032226563 433.869354248047 434.887725830078 435 435.542724609375 436 436.944732666016 436.98095703125 436.477325439453 434.714782714844 433.771514892578 432.788940429688 432.738708496094 433.090454101563 435.469207763672 439.327606201172 445.029266357422 448.703521728516 450.702117919922 451.261291503906 451.920959472656 452.256042480469 452.401092529297 453.130645751953 453.130645751953 453.130645751953 453.130645751953 453.130645751953 453.449554443359 454.567840576172 455 455 455 455 454.501983642578 453.356781005859 452.283142089844 450.909545898438 448.507537841797 446.105529785156 443.601745605469 442.150756835938 441.261291503906 441.643218994141 443.933898925781 447.482421875 452.797912597656 455.185943603516 456.336395263672 456.358215332031 456 455.870666503906 456
121.446556091309 123.467338562012 131.656295776367 145.11393737793 160.990310668945 174.144744873047 182.944717407227 192.439910888672 201.502517700195 215.914566040039 230.326629638672 242.266326904297 249.145431518555 251.64485168457 250.916610717773 250.658294677734 250.658294677734 250.658294677734 250.658294677734 250.884414672852 251.658294677734 250.821823120117 246.180908203125 239.834228515625 233.045227050781 224.349365234375 215.349639892578 207.095748901367 203.427139282227 207.738693237305 215.381912231445 221.662704467773 221.033233642578 214.470825195313 209.432571411133 208.843292236328 214.834167480469 222.961212158203 229.06022644043 230.167098999023 229.811645507813 230.209976196289 234.005279541016 239.257873535156 245.829147338867 253.035171508789 260.2412109375 267.730560302734 275.653259277344 283.030578613281 290.733673095703 297.721374511719 303.669769287109 308.507537841797 312.023895263672 314.457275390625 315.658294677734 315.130645751953 313.820648193359 310.349639892578 305.943939208984 302.206573486328 299.582916259766 298.700286865234 299.864318847656 303.683410644531 310.811859130859 319.110565185547 322.482543945313 318.853057861328 312.288970947266 307.744842529297 308.753753662109 314.086975097656 320.771728515625 328.538482666016 336.773864746094 344.887573242188 347.852447509766 344.704467773438 337.738708496094 331.909545898438 328.884429931641 327.422119140625 329.594146728516 337.424621582031 351.116729736328 366.628143310547 378.114074707031 382.436492919922 383.170867919922 385.537170410156 392.037017822266 400.94287109375 411.245727539063 417.009216308594 419.040191650391 419.036682128906 420.216094970703 422.618103027344 425.695953369141 428.753753662109 429.638336181641 429.705017089844 430 430 430.713562011719 431 431 431 430.482421875 430 430 429.959991455078 429.88330078125 430.336669921875 429.853057861328 429.975006103516 430 430 430 430 430.929656982422 431.130645751953 432 432 431.513336181641 430.402008056641 430.472351074219 431.336669921875 431.693328857422 432.738708496094 433 434.094024658203 434.668334960938 435.211059570313 435.668334960938 436.613067626953 436.522613525391 434.974884033203 432.938934326172 431.587951660156 430.386932373047 430.336669921875 430.805114746094 434.062713623047 440.018829345703 447.376953125 451.974884033203 453.663330078125 453.663330078125 453.663330078125 454.304779052734 454.331665039063 454.331665039063 454.331665039063 454.331665039063 454.331665039063 454.331665039063 454.331665039063 454.711181640625 455 455 455 455 455 454.482788085938 454.331665039063 453.311553955078 450.909545898438 448.315887451172 445.253295898438 443.683410644531 443.331665039063 443.713562011719 445.304168701172 448.091766357422 451.623107910156 454.522613525391 455.336669921875 455.336669921875 455.336669921875 454.675048828125 455.731658935547
138.081130981445 141.137954711914 148.133071899414 158.958480834961 170.924041748047 182.015075683594 190.422103881836 199.696395874023 209.368850708008 223.256286621094 237.224014282227 248.542709350586 254.874374389648 256.587280273438 255.844223022461 255.065322875977 255.065322875977 255.065322875977 255.065322875977 255.291458129883 256.065338134766 254.809051513672 249.477935791016 242.351760864258 234.914566040039 226.737731933594 219.603591918945 213.481628417969 211.301513671875 215.738876342773 223.788940429688 229.303268432617 227.67839050293 220.422103881836 213.811218261719 211.779525756836 216.415267944336 223.148300170898 229.138626098633 232.458801269531 234.587005615234 237.067474365234 242.04020690918 248.041946411133 254.236175537109 261.442199707031 268.648254394531 276.708557128906 284.001403808594 290.201019287109 296.919860839844 302.538787841797 307.502502441406 312.778900146484 316.12060546875 318.306549072266 319.440643310547 318.733673095703 318 315.473510742188 312.51025390625 309.859283447266 307.920349121094 307.728637695313 308.126800537109 311.306182861328 317.703521728516 324.852416992188 326.879333496094 322.939697265625 316.46533203125 312.456817626953 313.422119140625 320.721221923828 328.548583984375 335.83349609375 343.083190917969 349.023895263672 350.401733398438 347.147552490234 339.86767578125 334.311553955078 331.760192871094 330.269287109375 332.965362548828 340.300506591797 352.180816650391 366.207885742188 376.265716552734 379.263458251953 379.432159423828 381.331665039063 388.231170654297 398.418823242188 409.045227050781 415.207366943359 416.796112060547 416.030151367188 416.613067626953 419.015075683594 422.161804199219 424.909027099609 426.730712890625 428.104125976563 429.63330078125 430.273010253906 430.866149902344 431 431 431 430.482421875 430 429.510162353516 428.814056396484 427.934661865234 427.934661865234 427.934661865234 428.859283447266 429.001586914063 429.467346191406 429.748382568359 430 430.929656982422 431.130645751953 431.823333740234 431.18359375 429.467346191406 427.004272460938 427.005035400391 428.22802734375 430.296447753906 432.599517822266 433 433.925048828125 433.467346191406 434.010040283203 434.863494873047 435.944732666016 435.776641845703 433.773864746094 431.080108642578 429.185943603516 427.984924316406 428.467346191406 429.358215332031 433.763824462891 440.522613525391 448.683410644531 453.844207763672 455.532653808594 455.235534667969 455 455 455 455 455 455 455 455 455 455 455 455 455 455 455 455 455 454.741912841797 452.778900146484 450.106811523438 447.507537841797 446.085418701172 444.968963623047 444.711151123047 445.582916259766 446.732696533203 449.364807128906 450.522613525391 451.336669921875 451.336669921875 451.336669921875 452.391296386719 454.227355957031
155.981307983398 161.350616455078 166.279586791992 170.653915405273 176.948455810547 184.618087768555 193.924697875977 205.124893188477 216.556777954102 228.944244384766 241.371856689453 251.238784790039 256.409118652344 257.994659423828 257.674774169922 257.157653808594 256.733673095703 256.733673095703 256.733673095703 256.793884277344 257 255.743713378906 250.025131225586 242.796981811523 234.817825317383 228.041152954102 222.766036987305 218.476333618164 217.825485229492 223.615661621094 231.462310791016 237.146606445313 235.618087768555 227.131317138672 219.703521728516 216.786117553711 218.73503112793 223.954772949219 229.94775390625 235.928634643555 243.056213378906 249.23258972168 255.050247192383 259.500823974609 263.741882324219 269.849243164063 277.055267333984 285.115570068359 291.623107910156 296.375610351563 300.694641113281 304.617523193359 309.170867919922 315.003051757813 319.915344238281 322.520111083984 323.687652587891 323.070343017578 322.851959228516 321.135681152344 319.076538085938 317.5556640625 316.266326904297 316.135681152344 316.407043457031 318.678558349609 322.960113525391 327.931365966797 329.316589355469 326.214599609375 321.025115966797 318.573333740234 320.805999755859 328.698486328125 336.61767578125 342.460144042969 347.2646484375 350.471740722656 350.095489501953 346.757873535156 340.920440673828 336.990081787109 335.964111328125 335.915618896484 339.567840576172 345.619110107422 354.851806640625 365.337799072266 373.085418701172 376.016510009766 377.030151367188 379.954559326172 386.636535644531 397.170867919922 407.155670166016 413.040191650391 414.532653808594 412.964508056641 413.5888671875 414.453491210938 416.481903076172 418.826354980469 421.818054199219 425.182312011719 428.806457519531 430.512573242188 431 431 431 431 430.862152099609 430.206451416016 429.080413818359 426.323577880859 424.563049316406 424.065338134766 424.596221923828 426.401977539063 427.391967773438 428.505981445313 429.140533447266 429.800903320313 430.929656982422 431.130645751953 431.668334960938 430.076538085938 426.722442626953 422.309234619141 421.56689453125 423.985717773438 428.201019287109 432.285675048828 433 433.125640869141 432.266326904297 432.809051513672 434.010040283203 435.211059570313 435.708557128906 433.052154541016 429.623107910156 426.96826171875 426.279724121094 426.753875732422 429.055267333984 433.763824462891 441.075622558594 449.417083740234 455.045227050781 456.733673095703 456.175872802734 455.733673095703 455.733673095703 455 455 455 455 455 455 455 455 455 455 455 455 455 455 455.715240478516 455.557800292969 454.256408691406 452.311553955078 450.480987548828 448.502197265625 447.286437988281 446.187133789063 445.461242675781 444.116058349609 444.323638916016 443.647521972656 443.864318847656 443.864318847656 444.443145751953 447.30419921875 451.461090087891
173.327270507813 181.563293457031 184.048004150391 182.33056640625 181.004898071289 184.884414672852 195.663619995117 210.292724609375 223.744705200195 234.430236816406 244.195190429688 252.065505981445 256.457275390625 258 258 257.972412109375 257.934661865234 257.934661865234 257.934661865234 257.723327636719 256.600769042969 254.809051513672 249.865432739258 241.882446289063 234.613067626953 228.67529296875 225.58561706543 223.860855102539 224.783920288086 231.245880126953 239.603012084961 244.860778808594 243.87483215332 235.261306762695 227.352447509766 223.194717407227 222.757400512695 225.446990966797 231.287612915039 241.152755737305 252.927429199219 262.799713134766 269.462310791016 271.403564453125 273.012725830078 277.321594238281 284.527648925781 292.587951660156 298.725830078125 301.268005371094 303.321044921875 305.294250488281 310.240356445313 316.292541503906 322.897491455078 326.698455810547 327.782012939453 326.939697265625 326.799743652344 326.454956054688 325.206024169922 324.629699707031 323.738708496094 323.608032226563 323.87939453125 325.142120361328 327.129425048828 328.849761962891 329.919708251953 328.087463378906 325.298400878906 324.673370361328 328.955444335938 337.030364990234 344.015075683594 348.635894775391 350.511413574219 350.158264160156 347.959808349609 345.233947753906 341.96142578125 340.135925292969 340.635375976563 342.87939453125 346.773864746094 351.642242431641 357.341949462891 364.418365478516 369.571655273438 373.427124023438 375.55810546875 379.793975830078 386.39697265625 395.781982421875 404.005035400391 409.233825683594 410.261291503906 409.297698974609 409.261291503906 409.281341552734 409.867340087891 411.809051513672 415.970733642578 420.910186767578 427.336181640625 430.512573242188 431 430.145172119141 430.065338134766 430.361236572266 430.516235351563 430.018371582031 427.361358642578 423.776733398438 420.573760986328 419.261291503906 420.661285400391 423.045227050781 425.256286621094 426.762573242188 428.558502197266 429.728637695313 430.929656982422 431.130645751953 431.358337402344 428.004272460938 422.575561523438 415.775390625 414.663330078125 418.031402587891 424.452301025391 430.102508544922 432.008972167969 431.924621582031 431.065338134766 431.608032226563 433.504180908203 434.944732666016 434.773864746094 432.025115966797 427.91015625 424.633178710938 424.130645751953 425.366821289063 428.449371337891 433.763824462891 441.2763671875 448.791015625 454.376892089844 456.065338134766 455.507537841797 455.065338134766 455.065338134766 455 455 455 455 455 455 455 455 455 455 455 455 455 455 455.063690185547 455.053833007813 454.623107910156 453.384368896484 452.8837890625 450.909545898438 448.753753662109 447.19580078125 444.327423095703 441.562805175781 438.368896484375 436.218170166016 435.457275390625 435.457275390625 436.983642578125 441.287078857422 447.382080078125
186.401916503906 197.506698608398 199.657501220703 193.440841674805 188.117095947266 190.049621582031 200.662780761719 215.286529541016 228.661270141602 237.890274047852 246.077774047852 252.472366333008 255.63818359375 256.884429931641 257.864318847656 257.921600341797 258 258.11181640625 258.135681152344 257.909545898438 256.708557128906 254.87939453125 250.102447509766 243.230224609375 236.418304443359 231.814071655273 230.131134033203 229.92724609375 232.120849609375 238.435287475586 246.301513671875 250.954772949219 250.953063964844 243.855133056641 237.183486938477 232.990249633789 230.98307800293 230.950790405273 236.169738769531 246.353530883789 259.788177490234 271.457275390625 277.553131103516 278.128845214844 278.251251220703 281.261291503906 287.919586181641 295.863983154297 301.927093505859 303.221496582031 304.321594238281 305.611938476563 310.296478271484 317.369995117188 324.442199707031 329.060302734375 330.045684814453 329.135681152344 328.864318847656 328.900451660156 328.596069335938 328.135681152344 328.135681152344 328.135681152344 328.135681152344 328.479858398438 328.864318847656 328.745697021484 328.738861083984 328.625427246094 328.064758300781 329.584503173828 334.787658691406 342.753753662109 349.39697265625 352.205902099609 351.452270507813 349.126831054688 345.790496826172 344.504852294922 343.337493896484 343.500427246094 345.321594238281 348.027923583984 352.377532958984 355.884429931641 360.086822509766 363.833404541016 368.286437988281 371.889434814453 375.062469482422 379.533355712891 385.253387451172 391.796844482422 397.475982666016 401.715728759766 402.547760009766 401.725738525391 401.898742675781 402.997741699219 403.831176757813 406.066650390625 411.2763671875 417.256286621094 424.108489990234 428.551940917969 429.689788818359 429.852722167969 429.984313964844 429.821380615234 429.140838623047 427.776885986328 424.698486328125 421.007598876953 417.407043457031 416.728637695313 417.550445556641 420.63818359375 423.098541259766 425.381896972656 427.256286621094 428.457275390625 429.658294677734 429.728637695313 429.065338134766 425.453460693359 418.321594238281 409.787750244141 407.303192138672 410.315673828125 418.005035400391 424.472351074219 427.913299560547 429.359802246094 429.685699462891 430.407043457031 432.250854492188 432.728637695313 432.301513671875 429.206024169922 424.402008056641 421.742645263672 421.586151123047 424.201354980469 428.319091796875 433.763824462891 441.174102783203 448.463409423828 453.154754638672 454.728637695313 454.170867919922 453.728637695313 453.858856201172 454.886138916016 455 455 455 455 455 455 455 455 455 455 455 455 454.894989013672 453.889434814453 453.752502441406 453.915466308594 454.078399658203 454.135681152344 453.022827148438 450.63818359375 447.854278564453 443.668334960938 439.541870117188 435.058258056641 432.492462158203 430.864318847656 430.784545898438 431.517578125 436.544067382813 443.712799072266
193.91227722168 207.901901245117 211.965866088867 206.646606445313 200.618087768555 201.373825073242 209.60188293457 221.640060424805 232.773818969727 240.633163452148 247.422103881836 252.600936889648 255.362411499023 256.013336181641 256.663330078125 257.2275390625 258.209777832031 258.883331298828 259.336669921875 259.110565185547 257.909545898438 256.080413818359 252.299255371094 246.879592895508 241.836624145508 238.301284790039 237.143600463867 238.135116577148 240.160797119141 245.357666015625 252.159332275391 256.837982177734 257.965972900391 253.882888793945 249.645645141602 246.34358215332 243.110549926758 241.471725463867 244.301055908203 252.233703613281 263.030670166016 272.749420166016 277.302520751953 277.939697265625 277.325805664063 280.435668945313 286.909545898438 294.115570068359 300.100494384766 302.076232910156 302.937866210938 304.979888916016 310.249114990234 317.422119140625 325.306518554688 329.768981933594 330 328.507995605469 327.641326904297 327.592956542969 328.326629638672 328.326629638672 328.326629638672 328.663330078125 328.663330078125 328.190948486328 327.209899902344 326.115570068359 326.402008056641 327.419677734375 328.462158203125 331.371856689453 337.613067626953 344.819091796875 351.462310791016 353.854278564453 352.193084716797 348.125640869141 345.028747558594 345.43310546875 346.324920654297 347.930267333984 350.125640869141 353.281402587891 356.592956542969 359.321624755859 362.520294189453 365.426788330078 368.623107910156 372.325958251953 376.165832519531 379.997009277344 382.789947509766 385.482727050781 387.56982421875 389.123931884766 388.582916259766 388.286437988281 390.241912841797 393.659057617188 398.18603515625 403.399353027344 409.211059570313 413.878295898438 419.457916259766 423.690155029297 426.750885009766 428.857055664063 429.845520019531 428.133544921875 425.606262207031 422.637451171875 419.530731201172 416.493255615234 415.113311767578 414.839263916016 416.447235107422 419.462554931641 421.788940429688 423.206604003906 424.676635742188 425.718597412109 426.919586181641 427.033935546875 426.551666259766 421.793975830078 413.360229492188 403.839202880859 399.597534179688 400.763244628906 406.497222900391 412.653259277344 418.034973144531 423.114105224609 426.903472900391 429.206024169922 430.407043457031 430.027160644531 428.312744140625 424.929656982422 420.310028076172 417.407867431641 418.259460449219 422.317077636719 427.7587890625 433.763824462891 440.268829345703 446.437194824219 451.198181152344 452.206512451172 451.432159423828 451.245422363281 452.286437988281 453.541564941406 454.785125732422 455.189483642578 455.079528808594 455 455 455 455 455 455 455.057525634766 455.211486816406 454.80712890625 453.62890625 452.351745605469 451.225036621094 452.703521728516 454.293640136719 455.262237548828 453.376892089844 450.577270507813 447.517578125 443.527923583984 439.128265380859 435.381896972656 432.301513671875 430.543090820313 429.748748779297 429.860015869141 433.626495361328 439.543762207031
198.299789428711 214.839202880859 221.264846801758 218.805160522461 215.030151367188 215.069442749023 220.39599609375 228.314987182617 235.157730102539 241.717987060547 248.085433959961 252.854278564453 254.819091796875 255.473114013672 256 256.617248535156 258.420471191406 259.443115234375 260 259.895446777344 259.110565185547 257.619140625 255.033767700195 251.076507568359 248.119262695313 246.026336669922 245.130645751953 245.983642578125 247.347915649414 251.74235534668 257.101623535156 261.527648925781 264.354705810547 263.729675292969 262.803070068359 261.363403320313 257.714447021484 254.30989074707 254.947143554688 258.552551269531 265.022308349609 270.843780517578 273.236175537109 274.363708496094 274.427124023438 277.733673095703 283.492980957031 290.512573242188 296.497497558594 298.781005859375 301.085083007813 304.48681640625 310.2314453125 317.927368164063 325.306518554688 329.213745117188 328.798980712891 326.268920898438 325.321594238281 324.653259277344 325.386932373047 325.746307373047 325.924621582031 326.924621582031 326.924621582031 326.198272705078 324.402252197266 322.580108642578 322.965148925781 324.811920166016 327.356781005859 331.324554443359 337.738708496094 344.944732666016 351.587951660156 353.979888916016 351.412048339844 346.924621582031 344.547729492188 346.056762695313 348.774658203125 351.452270507813 353.854278564453 356.298095703125 359.12060546875 361.522613525391 363.924621582031 366.740142822266 369.286437988281 373.185943603516 377.492462158203 380.021423339844 379.495025634766 377.973571777344 375.136749267578 373.507537841797 371.928253173828 371.958709716797 376.140075683594 383.494445800781 393.145324707031 401.691589355469 408.010040283203 410.599700927734 413.078704833984 417.099731445313 422.549499511719 427.576477050781 429.169006347656 425.804656982422 420.759979248047 415.769409179688 413.429138183594 412.451782226563 413.097534179688 413.984924316406 415.909545898438 418.311553955078 419.982696533203 420.713562011719 421.386932373047 421.723785400391 423.278747558594 423.447326660156 422.854278564453 417.653259277344 407.851745605469 397.331604003906 391.492279052734 390.346466064453 393.195648193359 398.2412109375 405.256774902344 415.383026123047 424.304962158203 428.542724609375 428.943939208984 426.019256591797 422.874359130859 419.111053466797 414.911529541016 412.965393066406 415.259399414063 420.678405761719 426.87255859375 433.226135253906 439.231170654297 444.209442138672 447.61474609375 448.684295654297 447.829132080078 447.737731933594 449.325103759766 451.332702636719 454.018646240234 455.260192871094 455.109191894531 455 455 455 455 455 455 455.078979492188 455.290405273438 454.119110107422 451.498474121094 449.425567626953 447.738708496094 449.966461181641 452.658294677734 455.122314453125 454.029388427734 450.457275390625 446.854278564453 443.251251220703 440.069732666016 437.112487792969 434.703521728516 432.480377197266 430.949737548828 430.113494873047 431.9052734375 434.945404052734
200.065322875977 217.87629699707 226.908843994141 227.419479370117 225.904647827148 226.145721435547 229.003204345703 233.375198364258 237.541625976563 242.819091796875 248.516021728516 252.854278564453 254.819091796875 255.005249023438 255.261306762695 255.995223999023 258.246246337891 259.824127197266 260.738708496094 260.738708496094 260.311553955078 259.110565185547 257.692901611328 255.17805480957 253.663208007813 252.693466186523 252.060302734375 252.527633666992 253.773010253906 256.725036621094 260.641876220703 264.391967773438 267.994964599609 270.793060302734 273.349029541016 273.351776123047 270.550506591797 266.854278564453 265.626647949219 265.610107421875 268.082977294922 270.464416503906 271.221923828125 272.298431396484 273.502502441406 276.809051513672 282.266326904297 288.494598388672 293.674011230469 296.963195800781 300.709655761719 305.371856689453 311.035186767578 318.36181640625 325.113494873047 328.261291503906 327.108001708984 323.929656982422 322.457275390625 321.788940429688 322.867828369141 323.929656982422 324.261291503906 325.261291503906 325.261291503906 324.316589355469 321.593109130859 319.035186767578 318.878997802734 320.597991943359 323.477386474609 327.7587890625 334.321594238281 342.266326904297 349.117431640625 352.040191650391 349.472351074219 344.984924316406 342.671142578125 344.909027099609 347.984924316406 351.408050537109 354.040191650391 355.770324707031 358.628936767578 360.507537841797 362.909545898438 365.311553955078 367.809051513672 371.489532470703 374.908905029297 376.743713378906 373.917327880859 368.539947509766 362.485809326172 359.000671386719 357.248321533203 357.778900146484 362.768981933594 373.789855957031 387.393035888672 399.051818847656 405.398468017578 406.074127197266 406.699493408203 409.752014160156 416.451202392578 423.554992675781 425.698486328125 421.545043945313 415.201019287109 409.962982177734 408.125640869141 408.343994140625 410.844207763672 412.045227050781 413.969848632813 415.688842773438 416.783905029297 417.110565185547 417.783905029297 417.783905029297 418.956481933594 418.306518554688 417.311553955078 411.717071533203 401.231170654297 390.846221923828 383.422119140625 380.917114257813 381.768646240234 386.045227050781 395.317932128906 409.660125732422 422.1669921875 427.804016113281 426.968200683594 422.045867919922 417.500396728516 413.266326904297 409.520202636719 408.045227050781 411.596038818359 417.649047851563 424.633178710938 431.286437988281 436.734649658203 441.353515625 443.939697265625 444.520355224609 443.487426757813 443.045227050781 444.964813232422 448.385101318359 452.246246337891 453.938354492188 454.261291503906 454.974029541016 455 455 455 455 455 454.261291503906 453.986602783203 452.376892089844 448.629364013672 445.834167480469 444.135681152344 446.537689208984 449.944458007813 453.080413818359 452.542724609375 449.113525390625 446.115570068359 442.943145751953 441.01123046875 438.768829345703 437.105529785156 434.703521728516 432.455139160156 430.366973876953 430.258666992188 430.883728027344
198.447235107422 216.417083740234 226.735137939453 229.948532104492 230.806365966797 231.607757568359 233.432159423828 236.310394287109 238.060302734375 243.08039855957 248.668334960938 252.854278564453 254.819091796875 255 255.207778930664 256.387268066406 258.831787109375 260.763824462891 261.939697265625 261.727203369141 260.974243164063 260.311553955078 259.110565185547 257.820922851563 255.708541870117 254.939697265625 254.901519775391 254.929702758789 256.010040283203 258.426300048828 260.900726318359 263.974884033203 268.366485595703 273.098083496094 277.573913574219 279.732116699219 278.977691650391 276.838531494141 275.472351074219 274.532440185547 274.6318359375 275.346740722656 275.698486328125 276.795959472656 279.140716552734 282.022247314453 285.737091064453 290.287689208984 295.09716796875 299.828765869141 305.017639160156 310.331665039063 315.1875 320.127868652344 324.554138183594 326.12060546875 324.793975830078 322.33984375 321.056365966797 321.5166015625 323.407043457031 324.608032226563 325.756622314453 326.005798339844 326.624389648438 324.551086425781 320.979888916016 317.429595947266 315.185455322266 315.014831542969 315.405670166016 319.195983886719 325.7587890625 335.055633544922 343.708557128906 347.725738525391 346.130645751953 342.474304199219 340.130920410156 340.544921875 341.847717285156 343.840515136719 346.261291503906 349.633178710938 352.927154541016 355.286437988281 357.036804199219 359.150756835938 360.618835449219 363.371856689453 366.477386474609 367.524536132813 363.944732666016 358.87939453125 352.2763671875 348.477386474609 346.117797851563 346.447235107422 352.531311035156 365.388549804688 380.92919921875 394.344207763672 400.024688720703 401.033447265625 399.673370361328 401.930419921875 407.746551513672 414.110412597656 416.413208007813 414.434173583984 410.168731689453 406.700378417969 405.201019287109 405.369079589844 407.200286865234 407.763824462891 409.008453369141 410.226135253906 411.419555664063 412.567840576172 413.737030029297 414.180908203125 414.236968994141 412.178741455078 410.05517578125 403.693481445313 393.085418701172 382.944732666016 375.954772949219 373.678192138672 375.344451904297 380.628814697266 391.521209716797 406.941253662109 421.115081787109 427.03271484375 425.572875976563 419.448913574219 413.597991943359 409.140716552734 405.537689208984 403.477325439453 407.040191650391 413.145721435547 420.021209716797 426.065338134766 432.02490234375 437.060302734375 439.39697265625 439.884429931641 438.159271240234 437.301513671875 439.221099853516 442.944732666016 447.025115966797 449.393188476563 451.676727294922 453.992065429688 455 455 455 455 454.088623046875 451.799499511719 449.519897460938 447.155792236328 443.933227539063 441.291442871094 440.367401123047 442.34912109375 445.949432373047 448.798980712891 448.261291503906 446.7587890625 444.333740234375 442.442230224609 441.216094970703 439.030151367188 437.628143310547 435.589721679688 433.763824462891 430.620452880859 429.069732666016 426.822021484375
193.835205078125 210.452255249023 220.819091796875 226.46875 229.848342895508 231.741394042969 234.139877319336 236.487442016602 238.906646728516 243.08039855957 248.668334960938 252.854278564453 254.934341430664 256 256.031097412109 256.984924316406 259.386932373047 260.964813232422 262.140716552734 262.10888671875 261.632965087891 260.512573242188 259.311553955078 257.939697265625 255.768844604492 255 255 255 255.894470214844 257.062255859375 258.094268798828 260.492462158203 265.773864746094 271.784545898438 277.717346191406 281.8681640625 283.964935302734 283.934234619141 284.946075439453 284.125640869141 284.125640869141 284.125640869141 284.974884033203 286.226135253906 288.628143310547 290.966522216797 293.107635498047 296.146118164063 299.651000976563 305.136566162109 312.054290771484 318.043060302734 321.180297851563 323.184020996094 323.785766601563 323.512847900391 322.203887939453 320.835174560547 320.924621582031 322.429443359375 325.000427246094 326.903076171875 328.897766113281 330.140716552734 329.831176757813 327.110565185547 321.633178710938 316.256469726563 311.330535888672 307.350677490234 304.195465087891 305.296539306641 311.570983886719 323.419616699219 334.883819580078 341.047790527344 341.568511962891 338.767669677734 336.254302978516 333.848846435547 331.621612548828 330.946960449219 332.949737548828 337.826782226563 342.508331298828 345.718597412109 347.427124023438 347.733673095703 348.770477294922 351.003509521484 352.739044189453 353.170867919922 350.725494384766 347.233367919922 343.152984619141 340.653259277344 338.847717285156 339.201019287109 345.105529785156 357.447235107422 374.189880371094 387.391967773438 393.653259277344 393.934661865234 392.155792236328 393.549224853516 396.814270019531 400.993896484375 403.3603515625 403.867309570313 404.374267578125 404.162628173828 403.87060546875 402.701629638672 402.487396240234 402.296478271484 402.194671630859 403.080413818359 404.299072265625 406.2763671875 409.351745605469 410.399017333984 409.376739501953 405.596405029297 400.169403076172 393.005035400391 383.23388671875 374.331665039063 369.058288574219 369.157928466797 372.879943847656 380.134094238281 392.336669921875 407.950042724609 421.733673095703 426.923645019531 423.884429931641 416.113311767578 409.869750976563 404.629608154297 400.934661865234 399.472534179688 401.336669921875 407.029052734375 412.964080810547 419.535278320313 426.030670166016 432.070343017578 435.437194824219 434.7236328125 432.243133544922 430.430908203125 432.075378417969 434.798980712891 439.2412109375 442.923400878906 447.566711425781 451.608123779297 454.189147949219 455.507537841797 455.572875976563 454.263671875 451.787384033203 447.041290283203 443.269287109375 440.150756835938 437.857635498047 436.599487304688 435.753753662109 437.2255859375 439.370941162109 441.713562011719 442.293640136719 442.577880859375 442.303466796875 441.3583984375 440.216094970703 438.876495361328 437.513610839844 435.613067626953 433.824127197266 431.311096191406 427.750152587891 422.951293945313
188.736907958984 203.721878051758 214.231231689453 222.018508911133 227.021865844727 230.894470214844 233.480850219727 235.628143310547 238.060302734375 243.08039855957 248.668334960938 252.854278564453 255.63818359375 256.341705322266 256.562805175781 258.041687011719 260.246246337891 261.824127197266 263 262.773864746094 262 261.371856689453 260.170867919922 257.939697265625 255.847839355469 255.341705322266 255.341705322266 255.341705322266 255.364868164063 255.919296264648 255.658294677734 257.354797363281 262.225799560547 268.571533203125 275.946746826172 281.919952392578 286.491149902344 289.948822021484 292.382293701172 292.708557128906 292.708557128906 292.708557128906 293.847991943359 295.150756835938 297.552764892578 299.502502441406 299.827026367188 301.125183105469 303.282623291016 309.389801025391 317.085418701172 322.749938964844 323.706359863281 322.893981933594 321.021270751953 318.987121582031 317.969848632813 317.633178710938 318.720825195313 320.773864746094 324.376892089844 327.311553955078 328.844207763672 329.633178710938 329.090454101563 325.582305908203 319.924621582031 313.343994140625 306.888824462891 300.197021484375 293.535369873047 291.712921142578 298.080413818359 311.944396972656 325.859283447266 333.384979248047 335.291442871094 333.522613525391 331.005981445313 326.321838378906 319.983459472656 316.659240722656 318.020111083984 325.096984863281 331.432159423828 335.251251220703 336.722839355469 336.924621582031 336.987487792969 337.778076171875 338.2412109375 338.2412109375 337.649078369141 336.165832519531 334.869384765625 333.447235107422 332.246246337891 332.854278564453 337.899505615234 350.031707763672 365.864318847656 378.643218994141 384.904510498047 386.120788574219 384.843292236328 384.945465087891 385.736053466797 387.128723144531 389.666931152344 394.307098388672 399.197937011719 402.903167724609 403.052917480469 400.796966552734 398.673370361328 396.959411621094 395.909545898438 396.241851806641 397.499786376953 399.929656982422 403.185333251953 404.771118164063 403.090454101563 397.482421875 390.163055419922 382.377990722656 373.39697265625 365.042999267578 362.085418701172 364.189880371094 369.859283447266 378.795135498047 391.311553955078 408.005035400391 421.050262451172 425.773864746094 422.341705322266 413.7587890625 406.733673095703 401.811157226563 397.331665039063 395.226135253906 396.549835205078 401.236175537109 406.623504638672 413.055267333984 419.814056396484 426.391571044922 430.633178710938 429.797668457031 426.808685302734 424.115570068359 425.224792480469 428.2763671875 432.842224121094 437.41845703125 443.899505615234 449.505554199219 454.331665039063 456.366821289063 456.432159423828 454.462310791016 449.789184570313 443.516387939453 438.018646240234 434.145721435547 432.782012939453 432.633178710938 432.090667724609 432.633178710938 433.211059570313 434.9248046875 436.606201171875 438.756805419922 439.828979492188 440.658294677734 439.874359130859 438.024993896484 436.408813476563 434.797424316406 432.798980712891 429.608032226563 424.676788330078 418.271423339844
186.341705322266 200.145721435547 210.929641723633 219.512985229492 225.844223022461 230.012542724609 232.683410644531 234.643615722656 236.974868774414 242.112243652344 248.125625610352 252.647003173828 255.63818359375 257 257.221099853516 258.422119140625 260.246246337891 261.824127197266 262.457275390625 262.353881835938 262 261.371856689453 260.620849609375 259.025115966797 257.085418701172 257.319976806641 257.971771240234 258.623565673828 258.675384521484 257.263793945313 255.610900878906 255.930023193359 259.814056396484 266.760498046875 275.447235107422 282.211059570313 287.921936035156 292.919586181641 296.130645751953 297.085418701172 297.085418701172 297.085418701172 298.783905029297 300.213195800781 303.130645751953 304.8349609375 304.432159423828 304.939697265625 305.733825683594 310.259521484375 315.913757324219 319.904052734375 319.418060302734 317.047668457031 314.016174316406 311.950103759766 310.994964599609 311.127380371094 312.331665039063 314.85546875 318.060302734375 320.632263183594 321.984924316406 320.953796386719 319.402008056641 315.839263916016 311.216949462891 306.692779541016 300.834167480469 293.501770019531 286.442199707031 284.197326660156 290.050384521484 303.867492675781 318.147705078125 326.436676025391 329.114624023438 327.997589111328 325.441070556641 319.125946044922 310.554565429688 305.824127197266 306.979888916016 314.834167480469 322.525024414063 326.728637695313 327.743713378906 327.258270263672 327.201019287109 327.201019287109 327.201019287109 327.201019287109 327.201019287109 327.155059814453 326.743713378906 326.2412109375 325.040191650391 325.648254394531 330.093475341797 341.336669921875 355.705383300781 367.565216064453 374.161956787109 376.658294677734 376.684906005859 376.743713378906 375.969207763672 375.658294677734 378.361633300781 386.131622314453 394.997985839844 401.721649169922 403.499084472656 401.180908203125 397.724945068359 394.954772949219 392.883666992188 391.955474853516 391.886596679688 392.911804199219 395.211212158203 396.115570068359 393.751739501953 387.874359130859 380.696685791016 373.258666992188 364.729827880859 357.135681152344 354.336669921875 356.701690673828 362.592620849609 371.362915039063 384.929534912109 402.499450683594 416.662841796875 422.332794189453 419.800598144531 411.869506835938 405.337982177734 399.7236328125 394.516815185547 392.165832519531 392.864318847656 397.517578125 402.673370361328 408.378387451172 414.894470214844 421.064178466797 425.286437988281 424.409698486328 422.016296386719 420.266082763672 421.395263671875 425.187774658203 430.447235107422 435.814056396484 442.582916259766 449.347747802734 454.331665039063 456.366821289063 456.432159423828 454.462310791016 449.150756835938 441.432159423828 434.396179199219 429.768829345703 428.914581298828 428.914581298828 428.914581298828 428.710021972656 428.636108398438 429.608032226563 432.320739746094 434.831848144531 437.678405761719 438.914581298828 438.556091308594 437.472351074219 434.441802978516 431.178009033203 427.472381591797 422.977813720703 417.165832519531 410.6162109375
186.325424194336 199.236236572266 209.728637695313 219.060302734375 225.844223022461 229.824127197266 231.77018737793 233.070358276367 234.584075927734 240.392059326172 246.801300048828 252.472366333008 255.63818359375 257.014953613281 257.800384521484 258.422119140625 259.782806396484 261.080413818359 262 261.831817626953 261.573944091797 261.371856689453 261 260.728271484375 260.231170654297 260.984710693359 263.078948974609 265.173156738281 264.648254394531 261.894927978516 257.706512451172 255.907272338867 258.732666015625 266.291717529297 274.882904052734 282.211059570313 288.694458007813 293.492736816406 297.755310058594 298 297.667388916016 297.256286621094 298.954772949219 301.150756835938 304.502502441406 306.336364746094 306.090454101563 306.597991943359 306.042510986328 307.22216796875 308.889282226563 309.154357910156 307.356781005859 305.683044433594 303.234527587891 301.844207763672 301.136535644531 301.271759033203 302.388610839844 304.095489501953 306.617248535156 307.990386962891 307.005065917969 303.163757324219 299.868530273438 297.033813476563 295.75537109375 295.565979003906 293.509887695313 288.777923583984 283.480682373047 281.934661865234 287.532653808594 299.673858642578 312.139221191406 319.467346191406 322.729370117188 321.739227294922 319.790740966797 312.459259033203 303.5068359375 298.160797119141 299.316589355469 307.170867919922 314.994964599609 319.522613525391 320.537689208984 319.643218994141 319.537689208984 319.537689208984 319.537689208984 319.537689208984 319.537689208984 319.537689208984 319.537689208984 319.408905029297 318.054656982422 318.442199707031 322.224945068359 331.272705078125 343.390808105469 354.270660400391 361.366821289063 365.809478759766 368.337249755859 369.537689208984 368.110565185547 366.857513427734 370.346740722656 379.776702880859 391.812072753906 401.174377441406 405.287445068359 403.869354248047 400.266326904297 396.797241210938 393.502044677734 390.443786621094 387.581970214844 386.122192382813 385.144378662109 383.47900390625 380.977813720703 376.973236083984 371.638610839844 365.461486816406 357.402008056641 349.929656982422 345.828735351563 346.896179199219 350.451477050781 357.984924316406 372.291442871094 391.741943359375 408.633911132813 416.887664794922 416.347076416016 411.263610839844 405.271362304688 399.008453369141 392.657958984375 389.206970214844 390.424926757813 395.971405029297 401.7587890625 406.799957275391 411.65771484375 415.877868652344 418.653533935547 418.833190917969 418.297027587891 418.882415771484 421.633422851563 426.291442871094 432.203765869141 438.045227050781 444.246002197266 450.558837890625 455.075378417969 456.837738037109 456.854461669922 455.206024169922 449.173187255859 440.974884033203 433.768829345703 428.42822265625 426.680755615234 426.512573242188 426.381744384766 425.672241210938 425.512573242188 426.291442871094 428.723480224609 431.920745849609 434.816711425781 436.512573242188 436.512573242188 435.527648925781 431.67822265625 425.614074707031 418.130432128906 411.031341552734 404.869354248047 399.892059326172
